ncols         317
nrows         35
xllcorner     306235.69
yllcorner     6061613.92134
cellsize      9.9790167000001
NODATA_value  -9999
-9999 -9999 -9999 -9999 -9999 -9999 -9999 -9999 -9999 -9999 -9999 -9999 -9999 -9999 -9999 -10 -10 -10 -10 -10 -10 -9.971617 -9.930297 -9.888664 -9.846716 -9.80519 -9.762734 -9.719848 -9.676515 -9.632785 -9.589939 -9.546198 -9.501419 -9.456093 -9.410209 -9.365042 -9.320281 -9.273399 -9.226063 -9.176614 -9.129752 -9.080298 -9.030417 -8.980355 -8.931727 -8.871127 -8.819588 -8.763209 -8.706016 -8.651914 -8.59848 -8.540301 -8.480596 -8.424011 -8.367028 -8.306861 -8.244036 -8.183597 -8.123658 -8.062354 -7.997015 -7.934186 -7.871741 -7.803504 -7.739132 -7.666742 -7.591197 -7.520854 -7.453415 -7.377626 -7.301798 -7.23007 -7.152824 -7.075511 -6.998753 -6.946877 -6.895008 -6.843136 -6.791164 -6.739307 -6.687418 -6.635792 -6.5846 -6.534122 -6.483198 -6.436709 -6.390955 -6.345199 -6.299445 -6.250466 -6.201036 -6.150981 -6.10016 -6.051858 -6.000539 -5.953474 -5.904287 -5.856215 -5.81029 -5.762321 -5.714592 -5.671534 -5.626141 -5.5844 -5.537635 -5.495067 -5.450685 -5.402524 -5.363756 -5.322244 -5.281664 -5.244266 -5.204795 -5.167771 -5.130772 -5.093947 -5.057092 -5.021595 -4.994607 -4.980049 -4.965559 -4.951382 -4.937869 -4.924368 -4.911705 -4.900856 -4.888582 -4.878936 -4.870196 -4.860421 -4.85183 -4.844997 -4.836327 -4.830779 -4.824083 -4.820087 -4.814705 -4.810076 -4.805809 -4.802323 -4.801289 -4.799165 -4.797252 -4.795288 -4.793265 -4.794012 -4.793495 -4.795105 -4.798822 -4.803101 -4.808384 -4.813725 -4.819065 -4.824406 -4.829743 -4.835084 -4.840425 -4.840528 -4.838508 -4.836485 -4.834463 -4.835298 -4.839937 -4.846638 -4.852144 -4.8589 -4.865214 -4.871 -4.875614 -4.879066 -4.88318 -4.887248 -4.89127 -4.895247 -4.897532 -4.897686 -4.895885 -4.893291 -4.887474 -4.879685 -4.871 -4.862276 -4.849775 -4.836185 -4.82214 -4.807697 -4.791638 -4.775434 -4.759113 -4.742679 -4.726126 -4.710487 -4.698177 -4.687674 -4.67553 -4.658571 -4.641496 -4.621401 -4.601242 -4.58083 -4.560417 -4.539999 -4.519587 -4.499169 -4.478753 -4.458218 -4.437778 -4.416677 -4.39564 -4.374673 -4.353772 -4.333031 -4.312428 -4.291893 -4.271247 -4.250639 -4.230095 -4.209619 -4.189202 -4.168853 -4.148604 -4.128542 -4.108348 -4.088141 -4.067817 -4.047465 -4.027162 -4.006904 -3.990728 -3.976638 -3.962544 -3.948416 -3.934265 -3.920093 -3.905895 -3.89168 -3.877439 -3.863176 -3.848935 -3.834675 -3.820393 -3.806053 -3.791689 -3.777302 -3.762892 -3.748459 -3.73404 -3.719609 -3.705157 -3.69068 -3.676181 -3.66165 -3.647068 -3.632462 -3.53271 -3.40755 -3.28239 -3.194339 -3.12374 -3.053141 -2.982542 -2.911943 -2.832541 -2.714283 -2.596026 -2.477768 -2.35951 -2.241251 -2.122995 -2.234962 -2.546517 -9999 -9999 -9999 -9999 -9999 -9999 -9999 -9999 -9999 -9999 -9999 -9999 -9999 -9999 -9999 -9999 -9999 -9999 -9999 -9999 -9999 -9999 -9999 -9999 -9999 -9999 -9999 -9999 -9999 -9999 -9999 -9999 -9999 -9999 -9999 -9999 -9999 -9999 -9999 -9999 -9999 -9999 -9999 -9999 -9999 -9999
-9999 -9999 -9999 -9999 -9999 -9999 -9999 -9999 -9999 -9999 -9999 -9999 -9999 -9999 -9999 -9999 -9999 -10 -10 -10 -10 -10 -9.997067 -9.9557 -9.914005 -9.871977 -9.82956 -9.786726 -9.744667 -9.701249 -9.657425 -9.613173 -9.568446 -9.524246 -9.479609 -9.433643 -9.387268 -9.340463 -9.294238 -9.245259 -9.196526 -9.147051 -9.099423 -9.050998 -8.992228 -8.938895 -8.883394 -8.827437 -8.77562 -8.721177 -8.663071 -8.604485 -8.550209 -8.493839 -8.432412 -8.370543 -8.312013 -8.252809 -8.190085 -8.125809 -8.064839 -8.003157 -7.935009 -7.87125 -7.799568 -7.72404 -7.654942 -7.589786 -7.514033 -7.438207 -7.368959 -7.291719 -7.214407 -7.139596 -7.061336 -6.988108 -6.936234 -6.884322 -6.832466 -6.780725 -6.729012 -6.678244 -6.627896 -6.577435 -6.531681 -6.485923 -6.440169 -6.394413 -6.345685 -6.29597 -6.246061 -6.194842 -6.146225 -6.094904 -6.047596 -5.998288 -5.949792 -5.903481 -5.855539 -5.807433 -5.763672 -5.718336 -5.676594 -5.628975 -5.584611 -5.541173 -5.491269 -5.452631 -5.410252 -5.368806 -5.331384 -5.291063 -5.254038 -5.217068 -5.180243 -5.142375 -5.105624 -5.070971 -5.035789 -5.001616 -4.986232 -4.973215 -4.959677 -4.946847 -4.935287 -4.923552 -4.913311 -4.904572 -4.894734 -4.887262 -4.878739 -4.872631 -4.864398 -4.859363 -4.853336 -4.848408 -4.844587 -4.840523 -4.836728 -4.833528 -4.832692 -4.831065 -4.829586 -4.828065 -4.826504 -4.827402 -4.827553 -4.829833 -4.833549 -4.837533 -4.842746 -4.848084 -4.853425 -4.858765 -4.864106 -4.869443 -4.874784 -4.880125 -4.881138 -4.879117 -4.877097 -4.877889 -4.88306 -4.889761 -4.895617 -4.902373 -4.908834 -4.914814 -4.919507 -4.922956 -4.926823 -4.930646 -4.934426 -4.938165 -4.940081 -4.939373 -4.937407 -4.93422 -4.928364 -4.920762 -4.912634 -4.904033 -4.8909 -4.877563 -4.86294 -4.84807 -4.832058 -4.815938 -4.79994 -4.783889 -4.767713 -4.753702 -4.741836 -4.729904 -4.717324 -4.703335 -4.683632 -4.66337 -4.643043 -4.622636 -4.602227 -4.581812 -4.561398 -4.540977 -4.520523 -4.500007 -4.478931 -4.457967 -4.437068 -4.416237 -4.395295 -4.374393 -4.353559 -4.332788 -4.312082 -4.291512 -4.271105 -4.250751 -4.230271 -4.209857 -4.189507 -4.169219 -4.148969 -4.128686 -4.108274 -4.087993 -4.067644 -4.047338 -4.027081 -4.006866 -3.9907 -3.976582 -3.962442 -3.948292 -3.934149 -3.919952 -3.905734 -3.891494 -3.877231 -3.862946 -3.848638 -3.834307 -3.820004 -3.805676 -3.791327 -3.776935 -3.762502 -3.748046 -3.733567 -3.719065 -3.704581 -3.690081 -3.67556 -3.635432 -3.510272 -3.385112 -3.283664 -3.213065 -3.142466 -3.071867 -3.001268 -2.93067 -2.818594 -2.700336 -2.582079 -2.463821 -2.345563 -2.227304 -2.168298 -2.479851 -9999 -9999 -9999 -9999 -9999 -9999 -9999 -9999 -9999 -9999 -9999 -9999 -9999 -9999 -9999 -9999 -9999 -9999 -9999 -9999 -9999 -9999 -9999 -9999 -9999 -9999 -9999 -9999 -9999 -9999 -9999 -9999 -9999 -9999 -9999 -9999 -9999 -9999 -9999 -9999 -9999 -9999 -9999 -9999 -9999 -9999 -9999
-9999 -9999 -9999 -9999 -9999 -9999 -9999 -9999 -9999 -9999 -9999 -9999 -9999 -9999 -9999 -9999 -9999 -9999 -10 -10 -10 -10 -10 -10 -9.981221 -9.939272 -9.897405 -9.854878 -9.811964 -9.768652 -9.724927 -9.682027 -9.637549 -9.592469 -9.547006 -9.501136 -9.455968 -9.410729 -9.360765 -9.312756 -9.265152 -9.217573 -9.168108 -9.11302 -9.058202 -9.00358 -8.950267 -8.899327 -8.843086 -8.785841 -8.729874 -8.676408 -8.618531 -8.557962 -8.498229 -8.440428 -8.380948 -8.317813 -8.255707 -8.195491 -8.134571 -8.066514 -8.002029 -7.932231 -7.856884 -7.789027 -7.723955 -7.650443 -7.574617 -7.507854 -7.430616 -7.353305 -7.281095 -7.204171 -7.12485 -7.045437 -6.977479 -6.925597 -6.874033 -6.82265 -6.771883 -6.721673 -6.672403 -6.626649 -6.580894 -6.535138 -6.489384 -6.440903 -6.390904 -6.34102 -6.2898 -6.240592 -6.189271 -6.141565 -6.092287 -6.043369 -5.996668 -5.948761 -5.90027 -5.855812 -5.810532 -5.768787 -5.720317 -5.674157 -5.631666 -5.580063 -5.541509 -5.498259 -5.455946 -5.417508 -5.377332 -5.340309 -5.303363 -5.264304 -5.227664 -5.189652 -5.153276 -5.118598 -5.08323 -5.048453 -5.018398 -4.994985 -4.981989 -4.969719 -4.958693 -4.9478 -4.938373 -4.930342 -4.920981 -4.914107 -4.906373 -4.899644 -4.892531 -4.886395 -4.882587 -4.877583 -4.874469 -4.87097 -4.86765 -4.864806 -4.864092 -4.862965 -4.86192 -4.860846 -4.859742 -4.860793 -4.86161 -4.864561 -4.868279 -4.871994 -4.877107 -4.882446 -4.887784 -4.893125 -4.898466 -4.903803 -4.909144 -4.914484 -4.919825 -4.921751 -4.919728 -4.920477 -4.926181 -4.932885 -4.939094 -4.945849 -4.952448 -4.958627 -4.9634 -4.966849 -4.970468 -4.974044 -4.977583 -4.981081 -4.982629 -4.981061 -4.978933 -4.975604 -4.969548 -4.961759 -4.953889 -4.944818 -4.932026 -4.918941 -4.904427 -4.889073 -4.873209 -4.857233 -4.841142 -4.824939 -4.809226 -4.796916 -4.786141 -4.774685 -4.760053 -4.745564 -4.725471 -4.705247 -4.684841 -4.664432 -4.644021 -4.623613 -4.603203 -4.582791 -4.562233 -4.54177 -4.520526 -4.499327 -4.478194 -4.457128 -4.436227 -4.415463 -4.394764 -4.374116 -4.353345 -4.332643 -4.312002 -4.291429 -4.270916 -4.250513 -4.230296 -4.210096 -4.189729 -4.169261 -4.148793 -4.128373 -4.107998 -4.087672 -4.067369 -4.047195 -4.026981 -4.006825 -3.99067 -3.976532 -3.962369 -3.948185 -3.933978 -3.919765 -3.905561 -3.891309 -3.877023 -3.862715 -3.848386 -3.834031 -3.819655 -3.805262 -3.79089 -3.776492 -3.762073 -3.747631 -3.733129 -3.718605 -3.704055 -3.612994 -3.487834 -3.372989 -3.30239 -3.231791 -3.161192 -3.090594 -3.019994 -2.922905 -2.804647 -2.686389 -2.56813 -2.449874 -2.331616 -2.213358 -2.413184 -2.72474 -9999 -9999 -9999 -9999 -9999 -9999 -9999 -9999 -9999 -9999 -9999 -9999 -9999 -9999 -9999 -9999 -9999 -9999 -9999 -9999 -9999 -9999 -9999 -9999 -9999 -9999 -9999 -9999 -9999 -9999 -9999 -9999 -9999 -9999 -9999 -9999 -9999 -9999 -9999 -9999 -9999 -9999 -9999 -9999 -9999 -9999 -9999
-9999 -9999 -9999 -9999 -9999 -9999 -9999 -9999 -9999 -9999 -9999 -9999 -9999 -9999 -9999 -9999 -9999 -9999 -9999 -10 -10 -10 -10 -10 -10 -10 -9.965091 -9.92268 -9.879878 -9.837422 -9.793969 -9.749902 -9.705331 -9.660368 -9.616173 -9.571155 -9.52513 -9.476272 -9.429811 -9.382814 -9.334206 -9.285218 -9.233502 -9.177508 -9.123765 -9.073096 -9.020752 -8.964994 -8.90861 -8.855263 -8.802057 -8.743223 -8.683514 -8.625915 -8.568843 -8.507948 -8.445542 -8.385605 -8.326142 -8.264091 -8.198019 -8.132807 -8.064897 -7.989725 -7.923114 -7.85812 -7.786849 -7.711028 -7.646746 -7.569514 -7.492202 -7.422593 -7.347006 -7.267426 -7.189643 -7.110394 -7.029764 -6.96734 -6.916294 -6.865615 -6.815447 -6.767375 -6.721618 -6.675863 -6.630106 -6.584352 -6.536119 -6.485838 -6.435702 -6.384822 -6.334957 -6.283636 -6.235536 -6.186285 -6.136946 -6.089856 -6.041979 -5.993113 -5.94795 -5.902727 -5.860525 -5.81166 -5.763702 -5.721859 -5.668939 -5.629734 -5.586267 -5.543087 -5.50363 -5.463602 -5.426577 -5.38966 -5.348122 -5.312948 -5.273682 -5.235558 -5.201406 -5.164846 -5.127592 -5.097898 -5.067122 -5.037 -5.009827 -4.993591 -4.982769 -4.972746 -4.964035 -4.955298 -4.94767 -4.940112 -4.934003 -4.92675 -4.921115 -4.915637 -4.911839 -4.907125 -4.904349 -4.901415 -4.898571 -4.896081 -4.895494 -4.894866 -4.894254 -4.893627 -4.89298 -4.894183 -4.895669 -4.899289 -4.903007 -4.906722 -4.911487 -4.916807 -4.922144 -4.927485 -4.932825 -4.938166 -4.943503 -4.948844 -4.954185 -4.959523 -4.962359 -4.963066 -4.969305 -4.976007 -4.982566 -4.989323 -4.996068 -5.000546 -5.004095 -5.007123 -5.006754 -5.002998 -5 -5 -5 -5 -5 -5 -5 -5 -4.995648 -4.985742 -4.972986 -4.959671 -4.945505 -4.929882 -4.914359 -4.898525 -4.882582 -4.866524 -4.852438 -4.84013 -4.830448 -4.819469 -4.804816 -4.787702 -4.767375 -4.747056 -4.726652 -4.706244 -4.685835 -4.665424 -4.64501 -4.62456 -4.604022 -4.582785 -4.561656 -4.540594 -4.519598 -4.498652 -4.477589 -4.456589 -4.435658 -4.41479 -4.39406 -4.373491 -4.35299 -4.332498 -4.311922 -4.291412 -4.270965 -4.250558 -4.23013 -4.209603 -4.189237 -4.168855 -4.148435 -4.128059 -4.107697 -4.087392 -4.067151 -4.046966 -4.026843 -4.006787 -3.990643 -3.976481 -3.962296 -3.948088 -3.93386 -3.919608 -3.905334 -3.891058 -3.876786 -3.862484 -3.84813 -3.833755 -3.819354 -3.804932 -3.790487 -3.776031 -3.761588 -3.747123 -3.715716 -3.590556 -3.465396 -3.391715 -3.321116 -3.250517 -3.179918 -3.109318 -3.027215 -2.908958 -2.7907 -2.672442 -2.554183 -2.435927 -2.317669 -2.34652 -2.658073 -9999 -9999 -9999 -9999 -9999 -9999 -9999 -9999 -9999 -9999 -9999 -9999 -9999 -9999 -9999 -9999 -9999 -9999 -9999 -9999 -9999 -9999 -9999 -9999 -9999 -9999 -9999 -9999 -9999 -9999 -9999 -9999 -9999 -9999 -9999 -9999 -9999 -9999 -9999 -9999 -9999 -9999 -9999 -9999 -9999 -9999 -9999 -9999
-9999 -9999 -9999 -9999 -9999 -9999 -9999 -9999 -9999 -9999 -9999 -9999 -9999 -9999 -9999 -9999 -9999 -9999 -9999 -9999 -10 -10 -10 -10 -10 -10 -10 -9.991144 -9.948649 -9.905724 -9.862254 -9.818192 -9.774731 -9.730076 -9.685022 -9.639531 -9.592045 -9.546865 -9.499044 -9.450838 -9.402328 -9.353986 -9.296816 -9.244418 -9.195906 -9.141793 -9.086904 -9.031668 -8.980652 -8.925694 -8.867915 -8.809241 -8.753604 -8.695925 -8.634948 -8.573537 -8.515502 -8.456733 -8.393304 -8.329501 -8.263586 -8.197564 -8.122568 -8.0572 -7.992289 -7.923256 -7.847436 -7.785637 -7.708412 -7.631097 -7.564093 -7.489844 -7.410262 -7.333849 -7.255984 -7.176682 -7.095494 -7.015705 -6.959392 -6.909222 -6.862342 -6.816588 -6.770833 -6.725078 -6.67932 -6.631336 -6.580772 -6.530385 -6.479846 -6.42932 -6.378003 -6.329504 -6.280283 -6.230525 -6.183043 -6.135198 -6.08595 -6.04009 -5.994922 -5.950932 -5.903 -5.853618 -5.810579 -5.757816 -5.717605 -5.674276 -5.630228 -5.58975 -5.54987 -5.512845 -5.475956 -5.433405 -5.397797 -5.357711 -5.318366 -5.284214 -5.24646 -5.207091 -5.177399 -5.145357 -5.112899 -5.085726 -5.058777 -5.03601 -5.013913 -4.997806 -4.989803 -4.981545 -4.974518 -4.967745 -4.961637 -4.954823 -4.9497 -4.944888 -4.941091 -4.936667 -4.934232 -4.931862 -4.929493 -4.927361 -4.926686 -4.926507 -4.926325 -4.926136 -4.926304 -4.928037 -4.9303 -4.934018 -4.937733 -4.94145 -4.945919 -4.951167 -4.956506 -4.961844 -4.967185 -4.972526 -4.977863 -4.983204 -4.988544 -4.993885 -4.999223 -5.004084 -5.008864 -5.013524 -5.0181 -5.022597 -5.026311 -5.02986 -5.033412 -5.036218 -5.034597 -5.030841 -5.027089 -5.023335 -5.019579 -5.015823 -5.01207 -5.008317 -5.004561 -5.000807 -5 -5 -5 -5 -4.986508 -4.970984 -4.955349 -4.939608 -4.92375 -4.907962 -4.895655 -4.883802 -4.873401 -4.862337 -4.84958 -4.829542 -4.809254 -4.788854 -4.768449 -4.748043 -4.72764 -4.707234 -4.68683 -4.666266 -4.645625 -4.624378 -4.603013 -4.581717 -4.560486 -4.539424 -4.518497 -4.497636 -4.47684 -4.456052 -4.435186 -4.414387 -4.393652 -4.372982 -4.352418 -4.332045 -4.311734 -4.291317 -4.270704 -4.25012 -4.229584 -4.209095 -4.188653 -4.1682 -4.147954 -4.127663 -4.107358 -4.087114 -4.066933 -4.046808 -4.026742 -4.006739 -3.990607 -3.97643 -3.962223 -3.947994 -3.933743 -3.919467 -3.90517 -3.89085 -3.876508 -3.86217 -3.847829 -3.833466 -3.819053 -3.804609 -3.790139 -3.775649 -3.693278 -3.568118 -3.48104 -3.410441 -3.339842 -3.269243 -3.198644 -3.128046 -3.013268 -2.895011 -2.776753 -2.658495 -2.540237 -2.42198 -2.303722 -2.591407 -9999 -9999 -9999 -9999 -9999 -9999 -9999 -9999 -9999 -9999 -9999 -9999 -9999 -9999 -9999 -9999 -9999 -9999 -9999 -9999 -9999 -9999 -9999 -9999 -9999 -9999 -9999 -9999 -9999 -9999 -9999 -9999 -9999 -9999 -9999 -9999 -9999 -9999 -9999 -9999 -9999 -9999 -9999 -9999 -9999 -9999 -9999 -9999 -9999
-9999 -9999 -9999 -9999 -9999 -9999 -9999 -9999 -9999 -9999 -9999 -9999 -9999 -9999 -9999 -9999 -9999 -9999 -9999 -9999 -9999 -9999 -10 -10 -10 -10 -10 -10 -10 -9.974608 -9.931357 -9.887591 -9.843438 -9.79889 -9.753931 -9.709669 -9.662372 -9.615274 -9.567471 -9.519953 -9.473103 -9.416122 -9.366383 -9.316091 -9.262834 -9.208813 -9.156201 -9.105072 -9.049332 -8.992608 -8.93621 -8.88129 -8.822204 -8.761949 -8.702689 -8.6454 -8.585199 -8.522517 -8.460916 -8.394365 -8.330231 -8.25541 -8.191287 -8.126456 -8.059664 -7.983847 -7.922448 -7.847303 -7.769995 -7.70559 -7.631235 -7.553098 -7.478055 -7.401575 -7.323005 -7.242412 -7.163733 -7.084541 -7.004806 -6.957314 -6.911557 -6.865802 -6.820045 -6.774291 -6.726511 -6.675706 -6.625069 -6.574869 -6.523685 -6.472366 -6.423474 -6.374282 -6.324101 -6.276231 -6.228417 -6.178792 -6.132226 -6.087114 -6.041338 -5.994342 -5.944108 -5.899299 -5.846692 -5.805477 -5.762283 -5.717367 -5.675872 -5.636137 -5.599112 -5.562253 -5.518692 -5.479004 -5.44174 -5.401173 -5.3633 -5.328077 -5.286592 -5.256898 -5.223589 -5.188797 -5.161624 -5.130996 -5.106998 -5.081282 -5.062878 -5.041447 -5.02714 -5.013584 -5.00243 -4.995378 -4.9891 -4.982893 -4.978284 -4.974137 -4.970341 -4.966211 -4.963831 -4.962036 -4.960248 -4.958662 -4.957859 -4.958104 -4.958356 -4.958615 -4.959684 -4.962079 -4.965027 -4.968746 -4.972461 -4.976179 -4.980352 -4.985526 -4.990867 -4.996204 -5.001473 -5.006504 -5.011441 -5.01629 -5.021051 -5.025732 -5.030326 -5.034842 -5.03962 -5.044006 -5.048316 -5.052549 -5.055628 -5.059177 -5.062729 -5.065314 -5.062438 -5.058684 -5.054932 -5.051176 -5.047422 -5.043666 -5.039914 -5.03616 -5.032404 -5.02865 -5.024895 -5.021142 -5.017385 -5.013632 -5.009877 -5.006123 -4.996644 -4.981044 -4.965337 -4.951177 -4.938869 -4.928109 -4.918185 -4.906298 -4.891768 -4.87138 -4.851062 -4.830661 -4.810259 -4.789857 -4.769452 -4.749043 -4.728601 -4.708037 -4.686639 -4.665346 -4.644117 -4.622959 -4.601868 -4.580781 -4.559619 -4.538527 -4.517497 -4.496607 -4.475881 -4.455216 -4.434617 -4.413988 -4.393317 -4.372713 -4.352146 -4.331573 -4.310933 -4.29045 -4.270014 -4.249528 -4.229042 -4.208528 -4.188076 -4.167683 -4.147348 -4.127078 -4.106987 -4.08684 -4.066714 -4.046651 -4.026645 -4.0067 -3.990577 -3.97636 -3.962119 -3.947897 -3.933624 -3.919327 -3.905005 -3.890663 -3.876297 -3.861909 -3.847498 -3.833095 -3.818686 -3.796 -3.67084 -3.570365 -3.499766 -3.429167 -3.358568 -3.28797 -3.217371 -3.117579 -2.999321 -2.881063 -2.762806 -2.644548 -2.52629 -2.408031 -2.524742 -2.836295 -9999 -9999 -9999 -9999 -9999 -9999 -9999 -9999 -9999 -9999 -9999 -9999 -9999 -9999 -9999 -9999 -9999 -9999 -9999 -9999 -9999 -9999 -9999 -9999 -9999 -9999 -9999 -9999 -9999 -9999 -9999 -9999 -9999 -9999 -9999 -9999 -9999 -9999 -9999 -9999 -9999 -9999 -9999 -9999 -9999 -9999 -9999 -9999 -9999
-9999 -9999 -9999 -9999 -9999 -9999 -9999 -9999 -9999 -9999 -9999 -9999 -9999 -9999 -9999 -9999 -9999 -9999 -9999 -9999 -9999 -9999 -9999 -10 -10 -10 -10 -10 -10 -10 -10 -9.9568 -9.912758 -9.868909 -9.824198 -9.777879 -9.731502 -9.684103 -9.637993 -9.590212 -9.535429 -9.487936 -9.436274 -9.383875 -9.330722 -9.280736 -9.227841 -9.172969 -9.1173 -9.063178 -9.007334 -8.948483 -8.888948 -8.831841 -8.774892 -8.713667 -8.651731 -8.592331 -8.525145 -8.462896 -8.388253 -8.325374 -8.260627 -8.196071 -8.120255 -8.058982 -7.986195 -7.908893 -7.847087 -7.771627 -7.695935 -7.622262 -7.547165 -7.467471 -7.389329 -7.31176 -7.233662 -7.153885 -7.074881 -7 -6.960771 -6.915017 -6.869259 -6.821445 -6.77064 -6.719751 -6.669373 -6.618052 -6.566731 -6.517445 -6.468281 -6.417677 -6.369421 -6.321567 -6.27163 -6.224368 -6.179309 -6.131745 -6.085685 -6.034598 -5.988018 -5.935567 -5.893347 -5.850294 -5.804509 -5.761996 -5.722405 -5.68538 -5.648549 -5.603978 -5.560421 -5.52577 -5.483983 -5.443349 -5.409692 -5.366094 -5.333318 -5.301824 -5.264698 -5.235766 -5.203215 -5.177989 -5.152846 -5.130044 -5.100884 -5.08586 -5.072053 -5.058704 -5.047639 -5.03714 -5.026918 -5.016219 -5.009902 -5.004635 -4.999588 -4.996058 -4.994043 -4.992644 -4.991239 -4.990062 -4.989758 -4.990438 -4.991137 -4.991854 -4.993063 -4.996118 -4.999755 -5.00355 -5.007278 -5.01104 -5.014904 -5.019907 -5.024747 -5.02941 -5.034226 -5.038956 -5.0436 -5.048159 -5.052635 -5.057033 -5.061355 -5.065598 -5.070375 -5.074491 -5.078532 -5.082502 -5.084946 -5.088494 -5.092046 -5.094411 -5.090281 -5.086527 -5.082775 -5.079019 -5.075265 -5.071509 -5.067757 -5.064003 -5.060247 -5.056491 -5.052738 -5.048985 -5.045228 -5.041475 -5.03772 -5.032961 -5.023365 -5.013787 -5.00423 -4.994391 -4.98208 -4.972414 -4.962969 -4.951061 -4.933611 -4.91326 -4.892865 -4.872467 -4.852066 -4.831666 -4.811267 -4.790861 -4.770307 -4.749478 -4.728086 -4.706699 -4.685237 -4.663843 -4.642621 -4.621531 -4.600509 -4.579549 -4.55866 -4.537733 -4.516771 -4.495877 -4.475048 -4.454329 -4.433794 -4.413325 -4.392847 -4.372148 -4.351447 -4.330794 -4.31019 -4.289631 -4.26903 -4.248637 -4.228314 -4.207891 -4.1875 -4.167168 -4.146895 -4.126683 -4.106532 -4.086437 -4.0665 -4.046495 -4.026548 -4.00666 -3.990551 -3.976309 -3.962044 -3.947758 -3.933451 -3.919164 -3.904841 -3.890475 -3.876086 -3.861675 -3.847239 -3.773562 -3.65969 -3.589091 -3.518492 -3.447893 -3.377295 -3.306695 -3.221889 -3.103632 -2.985374 -2.867115 -2.748859 -2.630601 -2.512343 -2.458076 -2.769629 -9999 -9999 -9999 -9999 -9999 -9999 -9999 -9999 -9999 -9999 -9999 -9999 -9999 -9999 -9999 -9999 -9999 -9999 -9999 -9999 -9999 -9999 -9999 -9999 -9999 -9999 -9999 -9999 -9999 -9999 -9999 -9999 -9999 -9999 -9999 -9999 -9999 -9999 -9999 -9999 -9999 -9999 -9999 -9999 -9999 -9999 -9999 -9999 -9999 -9999
-9999 -9999 -9999 -9999 -9999 -9999 -9999 -9999 -9999 -9999 -9999 -9999 -9999 -9999 -9999 -9999 -9999 -9999 -9999 -9999 -9999 -9999 -9999 -9999 -10 -10 -10 -10 -10 -10 -10 -10 -9.982777 -9.938599 -9.893385 -9.847732 -9.801557 -9.754625 -9.707322 -9.655329 -9.607243 -9.556461 -9.504916 -9.45299 -9.403897 -9.350612 -9.296606 -9.242147 -9.190146 -9.132885 -9.074762 -9.016155 -8.960994 -8.902621 -8.842135 -8.781244 -8.723745 -8.655924 -8.595562 -8.521163 -8.45946 -8.394858 -8.332478 -8.256665 -8.195516 -8.125087 -8.047789 -7.988585 -7.912023 -7.83877 -7.766469 -7.692753 -7.611938 -7.536248 -7.45979 -7.38278 -7.303003 -7.225152 -7.1461 -7.067406 -7 -6.964231 -6.916379 -6.865574 -6.814434 -6.763738 -6.712419 -6.661098 -6.611415 -6.562146 -6.511254 -6.462609 -6.414359 -6.36447 -6.316504 -6.271505 -6.222155 -6.175692 -6.12509 -6.076735 -6.024446 -5.981218 -5.938301 -5.891648 -5.848118 -5.808672 -5.771668 -5.73181 -5.689263 -5.644451 -5.607339 -5.566791 -5.524966 -5.489533 -5.445591 -5.40968 -5.380055 -5.340599 -5.309832 -5.275431 -5.248978 -5.224414 -5.197206 -5.165997 -5.146345 -5.130772 -5.115118 -5.10284 -5.091598 -5.080656 -5.070171 -5.056691 -5.050198 -5.044634 -5.039157 -5.034563 -5.031706 -5.029096 -5.027289 -5.025901 -5.02553 -5.026061 -5.026793 -5.027514 -5.028522 -5.031437 -5.035236 -5.039032 -5.042434 -5.046197 -5.049615 -5.054307 -5.058457 -5.062471 -5.06698 -5.071409 -5.075758 -5.080025 -5.084218 -5.088336 -5.092381 -5.096354 -5.101131 -5.104972 -5.108747 -5.112453 -5.114263 -5.117812 -5.121222 -5.12188 -5.118124 -5.114371 -5.110618 -5.106862 -5.103108 -5.099352 -5.0956 -5.091844 -5.08809 -5.084334 -5.080581 -5.076828 -5.073072 -5.069318 -5.065563 -5.058417 -5.048798 -5.039196 -5.029664 -5.020257 -5.011384 -5.002512 -5 -4.995824 -4.975444 -4.955068 -4.934672 -4.914277 -4.893878 -4.873478 -4.853076 -4.832638 -4.812055 -4.790493 -4.769034 -4.747643 -4.72632 -4.705064 -4.683875 -4.662652 -4.641396 -4.620204 -4.599157 -4.578267 -4.557443 -4.536685 -4.515989 -4.495224 -4.474458 -4.453733 -4.433015 -4.412261 -4.391664 -4.371111 -4.350605 -4.330019 -4.30936 -4.288754 -4.268215 -4.247734 -4.227313 -4.207076 -4.186926 -4.166655 -4.146444 -4.126293 -4.106199 -4.086164 -4.066188 -4.046272 -4.026451 -4.006621 -3.990521 -3.976257 -3.961971 -3.947664 -3.933331 -3.918977 -3.904602 -3.890251 -3.875875 -3.751124 -3.678416 -3.607817 -3.537219 -3.466619 -3.396019 -3.325419 -3.207942 -3.089685 -2.971427 -2.853169 -2.73491 -2.616654 -2.498396 -2.702964 -3.014517 -9999 -9999 -9999 -9999 -9999 -9999 -9999 -9999 -9999 -9999 -9999 -9999 -9999 -9999 -9999 -9999 -9999 -9999 -9999 -9999 -9999 -9999 -9999 -9999 -9999 -9999 -9999 -9999 -9999 -9999 -9999 -9999 -9999 -9999 -9999 -9999 -9999 -9999 -9999 -9999 -9999 -9999 -9999 -9999 -9999 -9999 -9999 -9999 -9999 -9999
-9999 -9999 -9999 -9999 -9999 -9999 -9999 -9999 -9999 -9999 -9999 -9999 -9999 -9999 -9999 -9999 -9999 -9999 -9999 -9999 -9999 -9999 -9999 -9999 -9999 -10 -10 -10 -10 -10 -10 -10 -10 -10 -9.963979 -9.91779 -9.871259 -9.824432 -9.776244 -9.726549 -9.676646 -9.625957 -9.576698 -9.525806 -9.473381 -9.420243 -9.368346 -9.315049 -9.258436 -9.201041 -9.14457 -9.089417 -9.030351 -8.970601 -8.911897 -8.85516 -8.786826 -8.728229 -8.654152 -8.593547 -8.529089 -8.468885 -8.393074 -8.332048 -8.263979 -8.186686 -8.128182 -8.052415 -7.981608 -7.910676 -7.837131 -7.757299 -7.683167 -7.607819 -7.531476 -7.45212 -7.375422 -7.297552 -7.21839 -7.148367 -7.075096 -7 -6.960508 -6.909117 -6.858101 -6.806784 -6.755463 -6.705383 -6.655725 -6.604834 -6.555798 -6.507152 -6.457311 -6.408646 -6.3637 -6.312561 -6.265234 -6.215579 -6.165455 -6.11332 -6.069089 -6.026309 -5.978787 -5.934239 -5.89494 -5.857965 -5.814357 -5.77455 -5.72848 -5.687359 -5.649598 -5.606581 -5.5671 -5.525094 -5.487502 -5.458291 -5.416497 -5.383893 -5.347649 -5.319966 -5.295979 -5.264372 -5.235673 -5.205782 -5.189493 -5.171689 -5.16024 -5.148049 -5.136198 -5.124661 -5.103849 -5.097166 -5.090497 -5.084636 -5.078866 -5.074375 -5.071127 -5.067273 -5.065197 -5.063794 -5.063134 -5.063066 -5.063519 -5.063962 -5.064524 -5.066925 -5.070721 -5.07452 -5.077591 -5.081353 -5.084326 -5.088706 -5.092168 -5.095531 -5.099737 -5.103863 -5.107913 -5.111894 -5.115799 -5.119637 -5.123409 -5.127109 -5.131242 -5.13427 -5.137752 -5.140028 -5.143579 -5.147129 -5.15032 -5.149724 -5.145967 -5.142214 -5.138461 -5.134705 -5.130949 -5.127195 -5.123443 -5.119687 -5.115933 -5.112177 -5.108425 -5.104671 -5.100915 -5.097161 -5.093406 -5.083876 -5.074232 -5.064607 -5.055113 -5.045733 -5.03686 -5.027987 -5.019114 -5.010242 -5.001369 -4.996874 -4.976482 -4.956088 -4.935691 -4.915295 -4.894893 -4.874344 -4.853333 -4.831774 -4.810284 -4.788757 -4.767201 -4.745818 -4.724565 -4.703379 -4.68226 -4.661207 -4.64022 -4.619157 -4.598101 -4.57711 -4.556234 -4.535543 -4.514915 -4.494289 -4.473575 -4.452774 -4.432005 -4.411286 -4.390614 -4.369861 -4.349319 -4.328846 -4.308424 -4.287882 -4.267403 -4.246982 -4.226623 -4.206323 -4.186082 -4.166001 -4.145995 -4.125904 -4.105869 -4.085894 -4.065977 -4.046118 -4.026317 -4.006573 -3.990492 -3.976207 -3.961897 -3.947565 -3.933212 -3.918833 -3.853846 -3.767741 -3.697142 -3.626543 -3.555943 -3.485343 -3.414745 -3.312253 -3.193995 -3.075738 -2.95748 -2.839222 -2.720963 -2.602707 -2.636298 -2.94785 -9999 -9999 -9999 -9999 -9999 -9999 -9999 -9999 -9999 -9999 -9999 -9999 -9999 -9999 -9999 -9999 -9999 -9999 -9999 -9999 -9999 -9999 -9999 -9999 -9999 -9999 -9999 -9999 -9999 -9999 -9999 -9999 -9999 -9999 -9999 -9999 -9999 -9999 -9999 -9999 -9999 -9999 -9999 -9999 -9999 -9999 -9999 -9999 -9999 -9999 -9999
-9999 -9999 -9999 -9999 -9999 -9999 -9999 -9999 -9999 -9999 -9999 -9999 -9999 -9999 -9999 -9999 -9999 -9999 -9999 -9999 -9999 -9999 -9999 -9999 -9999 -9999 -9999 -10 -10 -10 -10 -10 -10 -10 -10 -9.987891 -9.941542 -9.895206 -9.845857 -9.796831 -9.746998 -9.698611 -9.647716 -9.59615 -9.543881 -9.494428 -9.439741 -9.383986 -9.32732 -9.272986 -9.216417 -9.15808 -9.099068 -9.042548 -8.984907 -8.918331 -8.860894 -8.787141 -8.727633 -8.663321 -8.605292 -8.529484 -8.468582 -8.402871 -8.325582 -8.26722 -8.192808 -8.124444 -8.054881 -7.980208 -7.90289 -7.830085 -7.755848 -7.678544 -7.601239 -7.525692 -7.449007 -7.368936 -7.300688 -7.228772 -7.15345 -7.078129 -7.002809 -6.952468 -6.901147 -6.84983 -6.799354 -6.749301 -6.69841 -6.648985 -6.599946 -6.550151 -6.500782 -6.455894 -6.402968 -6.354782 -6.30607 -6.254175 -6.202199 -6.15696 -6.113788 -6.065929 -6.020361 -5.981211 -5.944261 -5.896904 -5.858603 -5.812509 -5.767381 -5.73197 -5.688196 -5.644661 -5.604593 -5.565736 -5.534115 -5.492396 -5.457958 -5.419868 -5.390957 -5.367547 -5.331535 -5.305349 -5.265918 -5.251243 -5.234406 -5.216653 -5.203249 -5.190656 -5.178399 -5.163829 -5.144131 -5.136024 -5.129829 -5.123734 -5.116933 -5.112747 -5.110312 -5.10545 -5.103106 -5.101687 -5.100738 -5.10007 -5.100242 -5.10041 -5.100525 -5.102409 -5.106205 -5.110004 -5.112747 -5.116508 -5.119038 -5.123106 -5.125878 -5.128592 -5.13249 -5.136316 -5.140072 -5.143762 -5.147383 -5.150561 -5.153473 -5.157865 -5.161203 -5.164485 -5.167706 -5.169345 -5.172894 -5.176446 -5.179417 -5.177567 -5.17381 -5.170057 -5.166302 -5.162548 -5.158792 -5.155038 -5.151286 -5.14753 -5.143775 -5.14002 -5.136268 -5.132514 -5.128758 -5.125002 -5.118906 -5.109231 -5.099574 -5.089957 -5.080352 -5.071209 -5.062336 -5.053463 -5.04459 -5.035718 -5.026845 -5.017972 -5.009099 -4.9979 -4.977505 -4.957108 -4.936676 -4.91607 -4.894347 -4.872723 -4.851169 -4.829679 -4.808261 -4.786911 -4.765625 -4.744263 -4.72291 -4.701705 -4.680655 -4.659669 -4.638752 -4.617898 -4.59711 -4.576205 -4.555324 -4.534461 -4.513589 -4.492875 -4.472208 -4.451587 -4.431002 -4.410191 -4.389438 -4.368746 -4.348116 -4.327548 -4.307166 -4.286875 -4.266595 -4.246237 -4.225938 -4.205699 -4.185519 -4.1654 -4.145338 -4.125409 -4.105541 -4.085626 -4.065766 -4.045965 -4.02622 -4.006535 -3.990454 -3.976135 -3.961816 -3.947468 -3.857066 -3.786468 -3.715868 -3.645269 -3.574671 -3.50407 -3.416564 -3.298306 -3.180048 -3.061791 -2.943533 -2.825275 -2.707017 -2.58876 -2.881186 -3.192739 -9999 -9999 -9999 -9999 -9999 -9999 -9999 -9999 -9999 -9999 -9999 -9999 -9999 -9999 -9999 -9999 -9999 -9999 -9999 -9999 -9999 -9999 -9999 -9999 -9999 -9999 -9999 -9999 -9999 -9999 -9999 -9999 -9999 -9999 -9999 -9999 -9999 -9999 -9999 -9999 -9999 -9999 -9999 -9999 -9999 -9999 -9999 -9999 -9999 -9999 -9999
-9999 -9999 -9999 -9999 -9999 -9999 -9999 -9999 -9999 -9999 -9999 -9999 -9999 -9999 -9999 -9999 -9999 -9999 -9999 -9999 -9999 -9999 -9999 -9999 -9999 -9999 -9999 -9999 -10 -10 -10 -10 -10 -10 -10 -10 -10 -9.965163 -9.917017 -9.868492 -9.819652 -9.769625 -9.718921 -9.667739 -9.618066 -9.564433 -9.509538 -9.453752 -9.400374 -9.343418 -9.285811 -9.227774 -9.1732 -9.114119 -9.049836 -8.993137 -8.92013 -8.86172 -8.797551 -8.741489 -8.665894 -8.605116 -8.541763 -8.464477 -8.406259 -8.334245 -8.267281 -8.199087 -8.123286 -8.04848 -7.977003 -7.903877 -7.825612 -7.750359 -7.675963 -7.600459 -7.519632 -7.453008 -7.382445 -7.307124 -7.231803 -7.156482 -7.077154 -6.995514 -6.944193 -6.893324 -6.842877 -6.791986 -6.742173 -6.692739 -6.642991 -6.592924 -6.547473 -6.493374 -6.444324 -6.39617 -6.342899 -6.291074 -6.244831 -6.200789 -6.153069 -6.106485 -6.067479 -6.030558 -5.980294 -5.939813 -5.896538 -5.849365 -5.810809 -5.769813 -5.722209 -5.684093 -5.643969 -5.609342 -5.568297 -5.532023 -5.492084 -5.461946 -5.439115 -5.398701 -5.375025 -5.334164 -5.310678 -5.293125 -5.273067 -5.258451 -5.246665 -5.235258 -5.222404 -5.197277 -5.184606 -5.176322 -5.169828 -5.163444 -5.156746 -5.151632 -5.145239 -5.142618 -5.140164 -5.138738 -5.13834 -5.137074 -5.136966 -5.136858 -5.136528 -5.137894 -5.141693 -5.145489 -5.147904 -5.150413 -5.153247 -5.156229 -5.159213 -5.161654 -5.165123 -5.168039 -5.170905 -5.174057 -5.177381 -5.180642 -5.183843 -5.188622 -5.191688 -5.194702 -5.197657 -5.198662 -5.202211 -5.205763 -5.208513 -5.20541 -5.201653 -5.1979 -5.194145 -5.190391 -5.186635 -5.182882 -5.179129 -5.175373 -5.171618 -5.167863 -5.164111 -5.160355 -5.156601 -5.152845 -5.144362 -5.134664 -5.124982 -5.115407 -5.105528 -5.096685 -5.087812 -5.078938 -5.070065 -5.061193 -5.052321 -5.043448 -5.034575 -5.023084 -5.01125 -4.998927 -4.978382 -4.957187 -4.935462 -4.913807 -4.892222 -4.870557 -4.849015 -4.8276 -4.806251 -4.78497 -4.763754 -4.742609 -4.721526 -4.700325 -4.679176 -4.658143 -4.637292 -4.616507 -4.595735 -4.574903 -4.554101 -4.533216 -4.512381 -4.491591 -4.470693 -4.450005 -4.42938 -4.408822 -4.388265 -4.367638 -4.347068 -4.326561 -4.306116 -4.285728 -4.265504 -4.245395 -4.225257 -4.205078 -4.184958 -4.164897 -4.144894 -4.124949 -4.105062 -4.085284 -4.065557 -4.045813 -4.026127 -4.006496 -3.990426 -3.946391 -3.875792 -3.805193 -3.734595 -3.663996 -3.593395 -3.520875 -3.402617 -3.284359 -3.166101 -3.047843 -2.929586 -2.811328 -2.69307 -2.81452 -3.126075 -9999 -9999 -9999 -9999 -9999 -9999 -9999 -9999 -9999 -9999 -9999 -9999 -9999 -9999 -9999 -9999 -9999 -9999 -9999 -9999 -9999 -9999 -9999 -9999 -9999 -9999 -9999 -9999 -9999 -9999 -9999 -9999 -9999 -9999 -9999 -9999 -9999 -9999 -9999 -9999 -9999 -9999 -9999 -9999 -9999 -9999 -9999 -9999 -9999 -9999 -9999 -9999
-9999 -9999 -9999 -9999 -9999 -9999 -9999 -9999 -9999 -9999 -9999 -9999 -9999 -9999 -9999 -9999 -9999 -9999 -9999 -9999 -9999 -9999 -9999 -9999 -9999 -9999 -9999 -9999 -9999 -10 -10 -10 -10 -10 -10 -10 -10 -10 -9.989157 -9.940693 -9.891534 -9.84169 -9.792612 -9.741703 -9.689125 -9.635089 -9.581439 -9.526651 -9.470418 -9.413539 -9.357671 -9.301853 -9.243334 -9.18134 -9.123917 -9.053118 -8.995807 -8.931783 -8.875655 -8.802303 -8.741653 -8.680654 -8.603375 -8.545298 -8.475743 -8.410117 -8.34157 -8.266365 -8.19407 -8.123921 -8.050989 -7.972682 -7.899477 -7.826232 -7.75137 -7.671086 -7.605326 -7.534541 -7.460797 -7.385477 -7.310155 -7.232611 -7.149343 -7.064071 -6.987295 -6.936457 -6.885565 -6.835361 -6.785532 -6.735831 -6.685061 -6.637883 -6.583782 -6.53387 -6.48489 -6.431643 -6.379951 -6.332703 -6.28779 -6.240211 -6.192606 -6.153746 -6.116765 -6.06558 -6.02102 -5.980567 -5.932175 -5.889646 -5.851427 -5.799757 -5.763593 -5.722203 -5.684567 -5.644197 -5.606091 -5.564302 -5.533404 -5.51068 -5.465867 -5.444702 -5.40384 -5.370116 -5.351842 -5.335855 -5.318188 -5.303659 -5.289715 -5.276142 -5.257543 -5.231588 -5.224113 -5.216619 -5.20983 -5.203153 -5.196558 -5.191052 -5.183416 -5.180524 -5.177913 -5.174992 -5.173141 -5.17276 -5.172384 -5.17144 -5.172532 -5.173378 -5.177177 -5.179298 -5.18306 -5.18333 -5.186555 -5.188057 -5.189649 -5.192907 -5.196179 -5.199389 -5.202542 -5.205639 -5.208682 -5.211668 -5.214599 -5.219378 -5.22217 -5.224917 -5.227611 -5.22798 -5.231529 -5.23508 -5.237608 -5.233253 -5.229496 -5.225743 -5.221988 -5.218235 -5.214478 -5.210725 -5.206972 -5.203216 -5.199461 -5.195706 -5.191954 -5.188198 -5.184444 -5.179392 -5.169661 -5.159949 -5.150297 -5.140859 -5.131032 -5.122159 -5.113288 -5.104415 -5.095541 -5.086668 -5.077797 -5.068924 -5.059238 -5.047481 -5.035676 -5.023799 -5.011353 -4.998201 -4.976412 -4.954692 -4.933042 -4.911458 -4.889945 -4.868497 -4.847118 -4.825617 -4.804255 -4.783041 -4.761899 -4.740819 -4.719807 -4.69886 -4.67795 -4.656911 -4.635903 -4.61492 -4.594088 -4.573306 -4.552569 -4.531851 -4.51102 -4.490118 -4.469276 -4.448499 -4.427783 -4.407255 -4.386816 -4.366437 -4.346028 -4.325583 -4.305199 -4.284873 -4.264608 -4.244401 -4.224329 -4.204396 -4.184402 -4.1644 -4.144454 -4.124568 -4.104739 -4.084968 -4.065255 -4.045622 -4.026031 -3.965117 -3.894518 -3.82392 -3.75332 -3.682719 -3.612121 -3.506927 -3.38867 -3.270412 -3.152154 -3.033895 -2.915639 -2.797381 -2.747854 -3.059408 -9999 -9999 -9999 -9999 -9999 -9999 -9999 -9999 -9999 -9999 -9999 -9999 -9999 -9999 -9999 -9999 -9999 -9999 -9999 -9999 -9999 -9999 -9999 -9999 -9999 -9999 -9999 -9999 -9999 -9999 -9999 -9999 -9999 -9999 -9999 -9999 -9999 -9999 -9999 -9999 -9999 -9999 -9999 -9999 -9999 -9999 -9999 -9999 -9999 -9999 -9999 -9999 -9999
-9999 -9999 -9999 -9999 -9999 -9999 -9999 -9999 -9999 -9999 -9999 -9999 -9999 -9999 -9999 -9999 -9999 -9999 -9999 -9999 -9999 -9999 -9999 -9999 -9999 -9999 -9999 -9999 -9999 -9999 -10 -10 -10 -10 -10 -10 -10 -10 -10 -10 -9.964459 -9.915381 -9.86534 -9.813818 -9.76064 -9.707807 -9.65293 -9.597418 -9.541268 -9.48743 -9.43032 -9.372547 -9.312845 -9.254695 -9.186107 -9.129893 -9.066013 -9.009822 -8.938713 -8.878225 -8.819548 -8.742307 -8.684337 -8.617241 -8.552954 -8.483286 -8.409443 -8.33966 -8.27084 -8.196874 -8.119748 -8.048594 -7.976504 -7.900734 -7.822542 -7.756649 -7.686288 -7.614471 -7.539153 -7.46383 -7.388067 -7.304797 -7.220867 -7.136772 -7.051204 -6.979142 -6.928548 -6.878325 -6.828671 -6.7772 -6.72829 -6.675091 -6.623415 -6.573607 -6.520391 -6.468827 -6.420574 -6.374794 -6.327351 -6.278728 -6.240014 -6.199316 -6.150866 -6.102228 -6.061402 -6.014983 -5.968482 -5.93061 -5.877306 -5.843093 -5.800436 -5.759793 -5.720096 -5.680159 -5.636518 -5.606194 -5.582156 -5.534895 -5.514378 -5.473516 -5.434141 -5.415576 -5.396756 -5.374599 -5.35886 -5.344173 -5.330071 -5.318581 -5.290987 -5.272046 -5.262146 -5.255023 -5.248017 -5.240267 -5.235806 -5.230473 -5.221593 -5.218433 -5.215806 -5.212595 -5.210145 -5.209486 -5.208832 -5.205268 -5.206264 -5.208866 -5.212662 -5.214454 -5.218215 -5.218041 -5.220954 -5.221767 -5.222639 -5.225664 -5.228631 -5.231548 -5.234411 -5.237224 -5.239985 -5.242696 -5.245354 -5.250134 -5.252655 -5.255133 -5.257564 -5.257297 -5.260846 -5.264398 -5.264874 -5.261096 -5.25734 -5.253586 -5.249831 -5.246078 -5.242321 -5.238568 -5.234813 -5.231059 -5.227304 -5.22355 -5.219797 -5.216041 -5.212286 -5.204848 -5.195094 -5.185359 -5.175702 -5.165625 -5.156508 -5.147635 -5.138762 -5.129891 -5.121018 -5.112144 -5.103271 -5.0944 -5.083543 -5.071829 -5.060081 -5.048048 -5.035603 -5.023095 -5.010265 -4.995584 -4.973901 -4.952211 -4.930634 -4.909122 -4.887681 -4.866304 -4.844995 -4.823752 -4.80255 -4.78124 -4.760051 -4.739041 -4.718095 -4.697179 -4.67623 -4.65533 -4.634429 -4.613475 -4.592574 -4.571522 -4.550687 -4.529914 -4.509204 -4.488557 -4.467873 -4.447157 -4.426502 -4.405909 -4.385376 -4.365005 -4.344748 -4.324553 -4.304286 -4.284023 -4.263816 -4.24367 -4.223582 -4.203552 -4.18363 -4.163874 -4.144017 -4.124189 -4.104417 -4.084704 -4.054442 -3.983844 -3.913244 -3.842643 -3.772044 -3.701446 -3.611238 -3.49298 -3.374723 -3.256465 -3.138207 -3.019949 -2.90169 -2.783434 -2.992742 -3.304296 -9999 -9999 -9999 -9999 -9999 -9999 -9999 -9999 -9999 -9999 -9999 -9999 -9999 -9999 -9999 -9999 -9999 -9999 -9999 -9999 -9999 -9999 -9999 -9999 -9999 -9999 -9999 -9999 -9999 -9999 -9999 -9999 -9999 -9999 -9999 -9999 -9999 -9999 -9999 -9999 -9999 -9999 -9999 -9999 -9999 -9999 -9999 -9999 -9999 -9999 -9999 -9999 -9999
-9999 -9999 -9999 -9999 -9999 -9999 -9999 -9999 -9999 -9999 -9999 -9999 -9999 -9999 -9999 -9999 -9999 -9999 -9999 -9999 -9999 -9999 -9999 -9999 -9999 -9999 -9999 -9999 -9999 -9999 -9999 -9999 -10 -10 -10 -10 -10 -10 -10 -10 -10 -9.988977 -9.93851 -9.886296 -9.833358 -9.779209 -9.724418 -9.669178 -9.615159 -9.558787 -9.501759 -9.444334 -9.385474 -9.319096 -9.263754 -9.200245 -9.14399 -9.075123 -9.014797 -8.958351 -8.881391 -8.823376 -8.758739 -8.69579 -8.625002 -8.552522 -8.485251 -8.417758 -8.342759 -8.267709 -8.197712 -8.126774 -8.050098 -7.973993 -7.907268 -7.83861 -7.768147 -7.692826 -7.617505 -7.543524 -7.459228 -7.377663 -7.29493 -7.210747 -7.123981 -7.037217 -6.971118 -6.920932 -6.869339 -6.818696 -6.766433 -6.71296 -6.662326 -6.609135 -6.557703 -6.508444 -6.461796 -6.41449 -6.364852 -6.326283 -6.281863 -6.236153 -6.183435 -6.141423 -6.097789 -6.048316 -6.008173 -5.954854 -5.919686 -5.878671 -5.835032 -5.795996 -5.754223 -5.708737 -5.678983 -5.653144 -5.606463 -5.581997 -5.543192 -5.50233 -5.475014 -5.455474 -5.433681 -5.419536 -5.404069 -5.388773 -5.373882 -5.351254 -5.324432 -5.312518 -5.302445 -5.295023 -5.287727 -5.27893 -5.271557 -5.266563 -5.25977 -5.256343 -5.253698 -5.250196 -5.247151 -5.246212 -5.245279 -5.24127 -5.240551 -5.244349 -5.248147 -5.249611 -5.253373 -5.252752 -5.255354 -5.255478 -5.2557 -5.258417 -5.261086 -5.263707 -5.26628 -5.268806 -5.271286 -5.273726 -5.27611 -5.28089 -5.283136 -5.285348 -5.287516 -5.286613 -5.290163 -5.293516 -5.292693 -5.288939 -5.285183 -5.281429 -5.277674 -5.273921 -5.270165 -5.266411 -5.262656 -5.258902 -5.255147 -5.251393 -5.24764 -5.243884 -5.239882 -5.230162 -5.220528 -5.210769 -5.201151 -5.190724 -5.181985 -5.173111 -5.164238 -5.155367 -5.146494 -5.13762 -5.128747 -5.119699 -5.108005 -5.09618 -5.084483 -5.072299 -5.059853 -5.047246 -5.034482 -5.02165 -5.008751 -4.992979 -4.971369 -4.949829 -4.928325 -4.906802 -4.88543 -4.864123 -4.842886 -4.821714 -4.800609 -4.779567 -4.758499 -4.737347 -4.716249 -4.695302 -4.674403 -4.653552 -4.632682 -4.611763 -4.590799 -4.569808 -4.548882 -4.528018 -4.507341 -4.486756 -4.466233 -4.445769 -4.425231 -4.404698 -4.384228 -4.363817 -4.343464 -4.32325 -4.303174 -4.283154 -4.263031 -4.242944 -4.222916 -4.202944 -4.18303 -4.163176 -4.143404 -4.123812 -4.073168 -4.00257 -3.931968 -3.86137 -3.790771 -3.715549 -3.597291 -3.479033 -3.360775 -3.242518 -3.12426 -3.006002 -2.887743 -2.926077 -3.23763 -9999 -9999 -9999 -9999 -9999 -9999 -9999 -9999 -9999 -9999 -9999 -9999 -9999 -9999 -9999 -9999 -9999 -9999 -9999 -9999 -9999 -9999 -9999 -9999 -9999 -9999 -9999 -9999 -9999 -9999 -9999 -9999 -9999 -9999 -9999 -9999 -9999 -9999 -9999 -9999 -9999 -9999 -9999 -9999 -9999 -9999 -9999 -9999 -9999 -9999 -9999 -9999 -9999 -9999
-9999 -9999 -9999 -9999 -9999 -9999 -9999 -9999 -9999 -9999 -9999 -9999 -9999 -9999 -9999 -9999 -9999 -9999 -9999 -9999 -9999 -9999 -9999 -9999 -9999 -9999 -9999 -9999 -9999 -9999 -9999 -9999 -9999 -10 -10 -10 -10 -10 -10 -10 -10 -10 -10 -9.958909 -9.905489 -9.851417 -9.797887 -9.742888 -9.687254 -9.630974 -9.575748 -9.516253 -9.452085 -9.396743 -9.334477 -9.278157 -9.211532 -9.151369 -9.094885 -9.020479 -8.962415 -8.900238 -8.836507 -8.766718 -8.6956 -8.630839 -8.563095 -8.488645 -8.415737 -8.34683 -8.276059 -8.199459 -8.125448 -8.057886 -7.990929 -7.921823 -7.846499 -7.771179 -7.698981 -7.614439 -7.534459 -7.453087 -7.370288 -7.283524 -7.196757 -7.110712 -7.022799 -6.961478 -6.909103 -6.856314 -6.802505 -6.751046 -6.697879 -6.646578 -6.596315 -6.548799 -6.501631 -6.450974 -6.412566 -6.36441 -6.319411 -6.267307 -6.221444 -6.179479 -6.129931 -6.085742 -6.032403 -5.996049 -5.956903 -5.910272 -5.871896 -5.82829 -5.780955 -5.751773 -5.724135 -5.67803 -5.64916 -5.612868 -5.572007 -5.534451 -5.516993 -5.500021 -5.476137 -5.45927 -5.443231 -5.427619 -5.41152 -5.384699 -5.359486 -5.350983 -5.342742 -5.335022 -5.327439 -5.318742 -5.310977 -5.301332 -5.297741 -5.294204 -5.291594 -5.287799 -5.284155 -5.282936 -5.281727 -5.277272 -5.276037 -5.279836 -5.283631 -5.284767 -5.288528 -5.287462 -5.289752 -5.289188 -5.288761 -5.291171 -5.293539 -5.295865 -5.298145 -5.300387 -5.302589 -5.304751 -5.306866 -5.311646 -5.313054 -5.314392 -5.315735 -5.315928 -5.31948 -5.322613 -5.320536 -5.316782 -5.313026 -5.30927 -5.305517 -5.301764 -5.298008 -5.294254 -5.290499 -5.286746 -5.28299 -5.279236 -5.275481 -5.271727 -5.265337 -5.255525 -5.245736 -5.235993 -5.226151 -5.216334 -5.207461 -5.198588 -5.189714 -5.180841 -5.17197 -5.163097 -5.154223 -5.144001 -5.132411 -5.120787 -5.108994 -5.096548 -5.084252 -5.071585 -5.058751 -5.045928 -5.033092 -5.02019 -5.007388 -4.990388 -4.968853 -4.947383 -4.925982 -4.904645 -4.883305 -4.861959 -4.84079 -4.819687 -4.798625 -4.777561 -4.756544 -4.735574 -4.714572 -4.693552 -4.672352 -4.651371 -4.630448 -4.609591 -4.588792 -4.568058 -4.547245 -4.526442 -4.505702 -4.485022 -4.464508 -4.444105 -4.423762 -4.403481 -4.383087 -4.362737 -4.342445 -4.322216 -4.302041 -4.281979 -4.262078 -4.242222 -4.22225 -4.202339 -4.182485 -4.162226 -4.091895 -4.021296 -3.950695 -3.880096 -3.809497 -3.701602 -3.583344 -3.465086 -3.346828 -3.228571 -3.110313 -2.992055 -2.873796 -3.170964 -3.482517 -9999 -9999 -9999 -9999 -9999 -9999 -9999 -9999 -9999 -9999 -9999 -9999 -9999 -9999 -9999 -9999 -9999 -9999 -9999 -9999 -9999 -9999 -9999 -9999 -9999 -9999 -9999 -9999 -9999 -9999 -9999 -9999 -9999 -9999 -9999 -9999 -9999 -9999 -9999 -9999 -9999 -9999 -9999 -9999 -9999 -9999 -9999 -9999 -9999 -9999 -9999 -9999 -9999 -9999
-9999 -9999 -9999 -9999 -9999 -9999 -9999 -9999 -9999 -9999 -9999 -9999 -9999 -9999 -9999 -9999 -9999 -9999 -9999 -9999 -9999 -9999 -9999 -9999 -9999 -9999 -9999 -9999 -9999 -9999 -9999 -9999 -9999 -9999 -10 -10 -10 -10 -10 -10 -10 -10 -10 -10 -9.978418 -9.924888 -9.870618 -9.815723 -9.760187 -9.705723 -9.647033 -9.585073 -9.529732 -9.468707 -9.412325 -9.347941 -9.28794 -9.231418 -9.159565 -9.101454 -9.041736 -8.9769 -8.908434 -8.839772 -8.776429 -8.707561 -8.63453 -8.563765 -8.495949 -8.424263 -8.348822 -8.276901 -8.208504 -8.143247 -8.07439 -8.000176 -7.924854 -7.852281 -7.769896 -7.691255 -7.611246 -7.528336 -7.443068 -7.3563 -7.271454 -7.183497 -7.093513 -6.999509 -6.945859 -6.89205 -6.839767 -6.786626 -6.735456 -6.684186 -6.6358 -6.58841 -6.537097 -6.498862 -6.446959 -6.400619 -6.351336 -6.301462 -6.258316 -6.211545 -6.163306 -6.111289 -6.072412 -6.035137 -5.985514 -5.947794 -5.902357 -5.853171 -5.824562 -5.795125 -5.749596 -5.716326 -5.682545 -5.641683 -5.602363 -5.579913 -5.559108 -5.532547 -5.516072 -5.5018 -5.487833 -5.471625 -5.444965 -5.418146 -5.39996 -5.388269 -5.380218 -5.372304 -5.364386 -5.358552 -5.350398 -5.337738 -5.333763 -5.329926 -5.325995 -5.324254 -5.321158 -5.319659 -5.318175 -5.313273 -5.311522 -5.31532 -5.319118 -5.319922 -5.322937 -5.322173 -5.324152 -5.322898 -5.321819 -5.323925 -5.325992 -5.328022 -5.330015 -5.331972 -5.333893 -5.335781 -5.337624 -5.339495 -5.341086 -5.342764 -5.342906 -5.345245 -5.348797 -5.35171 -5.348379 -5.344623 -5.340869 -5.337113 -5.33336 -5.329607 -5.325851 -5.322097 -5.318342 -5.314589 -5.310833 -5.307079 -5.303324 -5.29957 -5.290793 -5.280958 -5.271143 -5.261446 -5.250968 -5.241808 -5.232937 -5.224064 -5.21519 -5.206317 -5.197446 -5.188573 -5.179699 -5.168304 -5.156762 -5.145188 -5.133243 -5.120799 -5.108406 -5.0958 -5.083129 -5.070385 -5.057577 -5.045722 -5.032405 -5.019188 -5.0059 -4.987816 -4.966352 -4.944953 -4.923623 -4.902358 -4.881156 -4.860008 -4.838789 -4.817575 -4.796515 -4.775499 -4.754531 -4.733516 -4.712447 -4.691435 -4.670341 -4.649266 -4.628252 -4.607431 -4.586699 -4.566027 -4.545415 -4.524866 -4.5042 -4.483582 -4.463026 -4.442531 -4.422171 -4.40195 -4.381786 -4.361664 -4.341433 -4.32126 -4.301148 -4.281094 -4.261096 -4.241185 -4.221456 -4.18122 -4.11062 -4.04002 -3.969421 -3.898822 -3.805912 -3.687654 -3.569397 -3.451139 -3.332881 -3.214622 -3.096366 -2.978108 -3.1043 -3.415852 -9999 -9999 -9999 -9999 -9999 -9999 -9999 -9999 -9999 -9999 -9999 -9999 -9999 -9999 -9999 -9999 -9999 -9999 -9999 -9999 -9999 -9999 -9999 -9999 -9999 -9999 -9999 -9999 -9999 -9999 -9999 -9999 -9999 -9999 -9999 -9999 -9999 -9999 -9999 -9999 -9999 -9999 -9999 -9999 -9999 -9999 -9999 -9999 -9999 -9999 -9999 -9999 -9999 -9999 -9999
-9999 -9999 -9999 -9999 -9999 -9999 -9999 -9999 -9999 -9999 -9999 -9999 -9999 -9999 -9999 -9999 -9999 -9999 -9999 -9999 -9999 -9999 -9999 -9999 -9999 -9999 -9999 -9999 -9999 -9999 -9999 -9999 -9999 -9999 -9999 -10 -10 -10 -10 -10 -10 -10 -10 -10 -10 -9.998347 -9.944188 -9.889607 -9.834936 -9.777812 -9.718062 -9.662721 -9.602938 -9.546493 -9.484351 -9.424513 -9.367951 -9.298651 -9.240498 -9.183213 -9.117293 -9.050151 -8.983978 -8.922018 -8.852027 -8.780416 -8.711795 -8.645067 -8.572467 -8.498184 -8.428355 -8.359121 -8.294907 -8.225454 -8.153849 -8.078528 -8.005404 -7.925353 -7.848051 -7.769403 -7.685452 -7.602609 -7.515844 -7.432199 -7.344195 -7.254211 -7.15925 -7.063951 -6.981596 -6.928483 -6.875371 -6.824233 -6.772058 -6.722802 -6.674531 -6.623219 -6.584271 -6.529508 -6.481826 -6.435366 -6.381482 -6.337153 -6.293162 -6.240871 -6.190788 -6.148777 -6.111234 -6.060757 -6.023695 -5.976422 -5.927197 -5.897353 -5.866115 -5.821164 -5.783492 -5.752221 -5.711359 -5.670497 -5.639349 -5.617827 -5.597846 -5.577671 -5.55968 -5.542291 -5.525362 -5.505231 -5.478412 -5.451591 -5.440432 -5.428568 -5.420217 -5.412014 -5.401114 -5.393355 -5.3884 -5.375915 -5.371672 -5.367819 -5.362053 -5.358373 -5.356493 -5.354682 -5.352942 -5.349277 -5.347009 -5.350804 -5.354359 -5.35508 -5.354177 -5.35491 -5.355823 -5.356606 -5.35488 -5.35668 -5.358447 -5.360179 -5.36188 -5.363362 -5.364425 -5.365458 -5.36838 -5.369852 -5.371302 -5.372718 -5.371014 -5.374563 -5.378115 -5.380807 -5.376222 -5.372466 -5.368712 -5.364956 -5.361204 -5.35745 -5.353694 -5.349938 -5.346185 -5.342432 -5.338676 -5.334922 -5.331167 -5.325824 -5.315958 -5.30611 -5.296288 -5.286714 -5.276065 -5.267284 -5.258413 -5.24954 -5.240667 -5.231793 -5.22292 -5.214049 -5.204462 -5.192987 -5.181491 -5.16994 -5.157493 -5.145184 -5.132559 -5.120017 -5.107407 -5.094724 -5.081975 -5.070741 -5.057714 -5.045053 -5.031635 -5.018059 -5.004304 -4.985283 -4.963868 -4.94254 -4.921278 -4.900071 -4.87889 -4.857757 -4.836671 -4.815636 -4.794533 -4.773184 -4.752053 -4.730983 -4.709977 -4.68903 -4.668148 -4.647326 -4.626382 -4.605494 -4.58467 -4.564008 -4.543461 -4.522974 -4.502546 -4.482152 -4.461657 -4.441222 -4.420847 -4.400531 -4.380325 -4.360283 -4.340297 -4.320314 -4.30026 -4.280264 -4.259867 -4.199944 -4.129344 -4.058745 -3.988147 -3.910223 -3.791965 -3.673707 -3.55545 -3.437192 -3.318934 -3.200675 -3.082419 -3.037633 -3.349186 -3.66074 -9999 -9999 -9999 -9999 -9999 -9999 -9999 -9999 -9999 -9999 -9999 -9999 -9999 -9999 -9999 -9999 -9999 -9999 -9999 -9999 -9999 -9999 -9999 -9999 -9999 -9999 -9999 -9999 -9999 -9999 -9999 -9999 -9999 -9999 -9999 -9999 -9999 -9999 -9999 -9999 -9999 -9999 -9999 -9999 -9999 -9999 -9999 -9999 -9999 -9999 -9999 -9999 -9999 -9999 -9999
-9999 -9999 -9999 -9999 -9999 -9999 -9999 -9999 -9999 -9999 -9999 -9999 -9999 -9999 -9999 -9999 -9999 -9999 -9999 -9999 -9999 -9999 -9999 -9999 -9999 -9999 -9999 -9999 -9999 -9999 -9999 -9999 -9999 -9999 -9999 -9999 -9999 -10 -10 -10 -10 -10 -10 -10 -10 -10 -10 -9.964149 -9.908591 -9.851051 -9.79571 -9.737169 -9.68066 -9.620761 -9.561084 -9.504485 -9.437738 -9.379585 -9.322252 -9.257687 -9.191867 -9.128184 -9.065492 -8.996492 -8.9263 -8.859824 -8.79279 -8.720671 -8.647662 -8.579808 -8.509698 -8.445525 -8.37653 -8.307524 -8.232203 -8.158528 -8.080809 -8.004846 -7.927562 -7.84257 -7.762153 -7.675385 -7.592942 -7.504893 -7.414909 -7.319367 -7.2257 -7.129857 -7.031695 -6.964118 -6.912104 -6.859929 -6.809803 -6.760655 -6.709341 -6.666821 -6.612466 -6.563035 -6.515466 -6.463174 -6.415988 -6.371686 -6.318419 -6.270288 -6.22514 -6.18646 -6.135998 -6.099596 -6.05049 -6.001254 -5.97014 -5.937102 -5.892728 -5.850655 -5.821897 -5.781034 -5.740173 -5.702605 -5.683159 -5.662741 -5.634082 -5.614882 -5.596983 -5.581807 -5.56699 -5.538675 -5.511856 -5.4874 -5.47785 -5.468864 -5.460217 -5.451725 -5.440926 -5.430902 -5.422895 -5.414092 -5.409578 -5.405712 -5.399656 -5.394232 -5.392179 -5.39015 -5.386496 -5.385279 -5.382493 -5.386292 -5.386474 -5.390235 -5.386467 -5.387602 -5.386501 -5.387251 -5.387941 -5.388883 -5.389749 -5.390598 -5.391434 -5.392254 -5.393056 -5.394354 -5.399135 -5.400334 -5.401517 -5.402669 -5.400331 -5.40388 -5.407432 -5.408909 -5.404065 -5.400309 -5.396554 -5.392799 -5.389047 -5.385293 -5.381537 -5.377781 -5.374028 -5.370275 -5.366519 -5.362765 -5.35901 -5.35128 -5.341389 -5.331522 -5.321738 -5.311391 -5.30153 -5.29276 -5.283887 -5.275016 -5.266143 -5.257269 -5.248396 -5.239523 -5.228765 -5.21734 -5.205894 -5.194188 -5.181744 -5.169567 -5.15712 -5.144608 -5.132017 -5.119361 -5.106522 -5.095761 -5.08286 -5.070605 -5.057336 -5.043904 -5.030149 -5.016397 -5.002642 -4.982748 -4.961452 -4.940201 -4.918905 -4.897726 -4.876596 -4.855515 -4.83435 -4.813129 -4.791967 -4.770872 -4.749649 -4.728487 -4.70752 -4.68664 -4.665823 -4.645064 -4.624369 -4.603701 -4.582936 -4.562234 -4.541594 -4.521092 -4.500728 -4.480422 -4.460175 -4.439921 -4.419608 -4.399352 -4.379155 -4.359015 -4.338964 -4.319097 -4.289268 -4.218669 -4.14807 -4.077472 -4.006873 -3.896276 -3.778018 -3.65976 -3.541503 -3.423245 -3.304987 -3.186729 -3.06847 -3.282521 -3.594074 -9999 -9999 -9999 -9999 -9999 -9999 -9999 -9999 -9999 -9999 -9999 -9999 -9999 -9999 -9999 -9999 -9999 -9999 -9999 -9999 -9999 -9999 -9999 -9999 -9999 -9999 -9999 -9999 -9999 -9999 -9999 -9999 -9999 -9999 -9999 -9999 -9999 -9999 -9999 -9999 -9999 -9999 -9999 -9999 -9999 -9999 -9999 -9999 -9999 -9999 -9999 -9999 -9999 -9999 -9999 -9999
-9999 -9999 -9999 -9999 -9999 -9999 -9999 -9999 -9999 -9999 -9999 -9999 -9999 -9999 -9999 -9999 -9999 -9999 -9999 -9999 -9999 -9999 -9999 -9999 -9999 -9999 -9999 -9999 -9999 -9999 -9999 -9999 -9999 -9999 -9999 -9999 -9999 -9999 -10 -10 -10 -10 -10 -10 -10 -10 -10 -10 -9.98404 -9.928699 -9.8714 -9.814828 -9.75717 -9.697656 -9.641019 -9.576822 -9.518671 -9.461291 -9.39808 -9.333583 -9.27239 -9.208569 -9.140958 -9.072187 -9.007853 -8.939857 -8.868874 -8.797933 -8.731262 -8.660241 -8.596143 -8.528849 -8.461198 -8.385877 -8.311652 -8.236266 -8.161642 -8.083332 -7.999708 -7.921693 -7.834929 -7.753685 -7.665591 -7.575296 -7.479484 -7.387448 -7.293317 -7.195156 -7.098441 -6.999975 -6.9478 -6.896808 -6.846777 -6.795463 -6.74937 -6.697752 -6.644245 -6.595486 -6.545981 -6.494825 -6.44925 -6.395967 -6.349788 -6.301503 -6.261686 -6.211238 -6.174058 -6.124557 -6.075314 -6.042931 -6.008091 -5.964296 -5.91782 -5.891572 -5.850709 -5.80985 -5.770583 -5.744246 -5.721458 -5.695672 -5.678133 -5.66009 -5.641348 -5.623104 -5.598941 -5.572122 -5.545302 -5.527872 -5.514394 -5.50541 -5.496793 -5.488493 -5.480739 -5.470321 -5.457622 -5.452269 -5.447487 -5.443605 -5.437257 -5.431235 -5.428903 -5.4266 -5.420046 -5.419538 -5.417977 -5.421776 -5.421629 -5.425393 -5.421176 -5.422002 -5.418787 -5.41769 -5.418242 -5.418845 -5.419497 -5.420663 -5.421812 -5.422935 -5.424041 -5.42511 -5.429891 -5.430819 -5.431736 -5.432623 -5.429646 -5.433197 -5.436715 -5.435661 -5.431908 -5.428152 -5.424397 -5.420642 -5.41689 -5.413134 -5.40938 -5.405624 -5.401872 -5.398118 -5.394362 -5.390608 -5.386312 -5.376388 -5.366609 -5.356866 -5.347188 -5.336308 -5.32711 -5.318236 -5.309363 -5.300492 -5.291619 -5.282746 -5.273872 -5.264922 -5.253393 -5.241724 -5.230298 -5.218439 -5.205992 -5.193717 -5.181336 -5.168886 -5.156355 -5.143763 -5.133708 -5.12078 -5.108007 -5.096159 -5.083037 -5.06975 -5.055995 -5.042243 -5.028488 -5.014732 -5.000982 -4.980217 -4.958968 -4.937768 -4.916616 -4.895514 -4.874019 -4.852736 -4.831518 -4.810359 -4.789267 -4.768237 -4.747266 -4.726323 -4.705287 -4.684316 -4.66351 -4.642817 -4.622184 -4.601613 -4.581099 -4.560576 -4.539999 -4.519478 -4.49902 -4.478673 -4.458488 -4.43836 -4.418292 -4.398181 -4.378045 -4.357504 -4.307994 -4.237395 -4.166797 -4.096198 -4.000587 -3.882329 -3.764071 -3.645813 -3.527555 -3.409298 -3.29104 -3.172782 -3.215855 -3.527407 -9999 -9999 -9999 -9999 -9999 -9999 -9999 -9999 -9999 -9999 -9999 -9999 -9999 -9999 -9999 -9999 -9999 -9999 -9999 -9999 -9999 -9999 -9999 -9999 -9999 -9999 -9999 -9999 -9999 -9999 -9999 -9999 -9999 -9999 -9999 -9999 -9999 -9999 -9999 -9999 -9999 -9999 -9999 -9999 -9999 -9999 -9999 -9999 -9999 -9999 -9999 -9999 -9999 -9999 -9999 -9999 -9999
-9999 -9999 -9999 -9999 -9999 -9999 -9999 -9999 -9999 -9999 -9999 -9999 -9999 -9999 -9999 -9999 -9999 -9999 -9999 -9999 -9999 -9999 -9999 -9999 -9999 -9999 -9999 -9999 -9999 -9999 -9999 -9999 -9999 -9999 -9999 -9999 -9999 -9999 -9999 -10 -10 -10 -10 -10 -10 -10 -10 -10 -10 -10 -9.948996 -9.893188 -9.834228 -9.777553 -9.715908 -9.657757 -9.60033 -9.538473 -9.475299 -9.416573 -9.351648 -9.285424 -9.218079 -9.155882 -9.086925 -9.017077 -8.948203 -8.882715 -8.810784 -8.74676 -8.681169 -8.614241 -8.539551 -8.464776 -8.391723 -8.318438 -8.239095 -8.157865 -8.081237 -7.994472 -7.914429 -7.82629 -7.735415 -7.639601 -7.549195 -7.456776 -7.358616 -7.2637 -7.166973 -7.067799 -6.983809 -6.932899 -6.881587 -6.831916 -6.780218 -6.725452 -6.675507 -6.626987 -6.573663 -6.526815 -6.473514 -6.429287 -6.377865 -6.336913 -6.286481 -6.248123 -6.198623 -6.149373 -6.115722 -6.079082 -6.035861 -5.988513 -5.961247 -5.920385 -5.879526 -5.838665 -5.803683 -5.782179 -5.762011 -5.73562 -5.715293 -5.695806 -5.676838 -5.659594 -5.632388 -5.605568 -5.578767 -5.568347 -5.55469 -5.545412 -5.536301 -5.523311 -5.51641 -5.50974 -5.492693 -5.487751 -5.482878 -5.478878 -5.474861 -5.468239 -5.465629 -5.463048 -5.45402 -5.452811 -5.453465 -5.457261 -5.456787 -5.460548 -5.455887 -5.456399 -5.452498 -5.448925 -5.449852 -5.450762 -5.451655 -5.452532 -5.453393 -5.454239 -5.455068 -5.455868 -5.460647 -5.461301 -5.461951 -5.462574 -5.458962 -5.462514 -5.465809 -5.463504 -5.459749 -5.455995 -5.45224 -5.448485 -5.444733 -5.440977 -5.437222 -5.433467 -5.429715 -5.425961 -5.422205 -5.418449 -5.411767 -5.401821 -5.391897 -5.382031 -5.371951 -5.361405 -5.352586 -5.343713 -5.334839 -5.325966 -5.317095 -5.308222 -5.299348 -5.289225 -5.277919 -5.266602 -5.255133 -5.242689 -5.230724 -5.218439 -5.206084 -5.193405 -5.180696 -5.168162 -5.159115 -5.146535 -5.135311 -5.122416 -5.109352 -5.095596 -5.081841 -5.068088 -5.054333 -5.040758 -5.02694 -5.013181 -4.998939 -4.977693 -4.956494 -4.935183 -4.913813 -4.892501 -4.871256 -4.850031 -4.828722 -4.80761 -4.786581 -4.765615 -4.74471 -4.723869 -4.703086 -4.682292 -4.661446 -4.640657 -4.620014 -4.599504 -4.579054 -4.558664 -4.538332 -4.517955 -4.497558 -4.477219 -4.456936 -4.436744 -4.416736 -4.395915 -4.326721 -4.256122 -4.185523 -4.104897 -3.986639 -3.868382 -3.750124 -3.631866 -3.513608 -3.395351 -3.277093 -3.158835 -3.460743 -3.772296 -9999 -9999 -9999 -9999 -9999 -9999 -9999 -9999 -9999 -9999 -9999 -9999 -9999 -9999 -9999 -9999 -9999 -9999 -9999 -9999 -9999 -9999 -9999 -9999 -9999 -9999 -9999 -9999 -9999 -9999 -9999 -9999 -9999 -9999 -9999 -9999 -9999 -9999 -9999 -9999 -9999 -9999 -9999 -9999 -9999 -9999 -9999 -9999 -9999 -9999 -9999 -9999 -9999 -9999 -9999 -9999 -9999
-9999 -9999 -9999 -9999 -9999 -9999 -9999 -9999 -9999 -9999 -9999 -9999 -9999 -9999 -9999 -9999 -9999 -9999 -9999 -9999 -9999 -9999 -9999 -9999 -9999 -9999 -9999 -9999 -9999 -9999 -9999 -9999 -9999 -9999 -9999 -9999 -9999 -9999 -9999 -9999 -10 -10 -10 -10 -10 -10 -10 -10 -10 -10 -10 -9.970799 -9.914085 -9.854994 -9.796844 -9.739369 -9.678866 -9.617015 -9.55829 -9.494727 -9.42989 -9.364997 -9.302036 -9.233993 -9.165281 -9.098474 -9.032554 -8.961327 -8.897379 -8.833163 -8.765305 -8.693226 -8.617905 -8.54718 -8.474411 -8.394857 -8.316024 -8.24078 -8.154015 -8.075172 -7.986988 -7.895533 -7.803339 -7.710946 -7.620236 -7.523932 -7.42896 -7.333992 -7.234818 -7.137385 -7.035517 -6.967709 -6.914466 -6.861427 -6.80666 -6.755527 -6.705823 -6.653283 -6.604382 -6.551062 -6.506055 -6.455516 -6.412138 -6.361723 -6.322186 -6.272688 -6.22343 -6.188509 -6.150073 -6.107429 -6.06008 -6.030923 -5.990064 -5.949203 -5.90834 -5.870828 -5.849144 -5.82509 -5.793499 -5.774672 -5.756937 -5.739624 -5.720847 -5.692654 -5.665833 -5.639012 -5.615312 -5.60472 -5.594989 -5.585411 -5.57601 -5.563109 -5.55091 -5.544538 -5.530235 -5.524907 -5.519831 -5.513255 -5.51 -5.505246 -5.502353 -5.499496 -5.490022 -5.486085 -5.488949 -5.492745 -5.491942 -5.49546 -5.4906 -5.490798 -5.486208 -5.481987 -5.482607 -5.483214 -5.483813 -5.484398 -5.484976 -5.485542 -5.486096 -5.486624 -5.491405 -5.491786 -5.491693 -5.491483 -5.488279 -5.491831 -5.494906 -5.491347 -5.487592 -5.483838 -5.480083 -5.476329 -5.472576 -5.46882 -5.465065 -5.46131 -5.457558 -5.453802 -5.450048 -5.446292 -5.437109 -5.427255 -5.417305 -5.407481 -5.396624 -5.386701 -5.378062 -5.369189 -5.360315 -5.351442 -5.342569 -5.333698 -5.324825 -5.313529 -5.30227 -5.291004 -5.279384 -5.266936 -5.254878 -5.242655 -5.230361 -5.217988 -5.205551 -5.194379 -5.184134 -5.171679 -5.160861 -5.148118 -5.1352 -5.121445 -5.107689 -5.093934 -5.080179 -5.066716 -5.053124 -5.039415 -5.025591 -5.012075 -4.996345 -4.974852 -4.95342 -4.932052 -4.910747 -4.889503 -4.868323 -4.847207 -4.826153 -4.805079 -4.78396 -4.763011 -4.742171 -4.721394 -4.700677 -4.680019 -4.659422 -4.638773 -4.618112 -4.597508 -4.577022 -4.556694 -4.536423 -4.516212 -4.496058 -4.475822 -4.455143 -4.416046 -4.345447 -4.274848 -4.204249 -4.09095 -3.972692 -3.854434 -3.736177 -3.617919 -3.499661 -3.381402 -3.263146 -3.394077 -3.70563 -9999 -9999 -9999 -9999 -9999 -9999 -9999 -9999 -9999 -9999 -9999 -9999 -9999 -9999 -9999 -9999 -9999 -9999 -9999 -9999 -9999 -9999 -9999 -9999 -9999 -9999 -9999 -9999 -9999 -9999 -9999 -9999 -9999 -9999 -9999 -9999 -9999 -9999 -9999 -9999 -9999 -9999 -9999 -9999 -9999 -9999 -9999 -9999 -9999 -9999 -9999 -9999 -9999 -9999 -9999 -9999 -9999 -9999
-9999 -9999 -9999 -9999 -9999 -9999 -9999 -9999 -9999 -9999 -9999 -9999 -9999 -9999 -9999 -9999 -9999 -9999 -9999 -9999 -9999 -9999 -9999 -9999 -9999 -9999 -9999 -9999 -9999 -9999 -9999 -9999 -9999 -9999 -9999 -9999 -9999 -9999 -9999 -9999 -9999 -9999 -10 -10 -10 -10 -10 -10 -10 -10 -10 -10 -9.99408 -9.935929 -9.878408 -9.81926 -9.7589 -9.700006 -9.637805 -9.574355 -9.511915 -9.447922 -9.381061 -9.313484 -9.248744 -9.181915 -9.11187 -9.047998 -8.983782 -8.916368 -8.8469 -8.771579 -8.702637 -8.628843 -8.55062 -8.474182 -8.400323 -8.313557 -8.235916 -8.147685 -8.055649 -7.967227 -7.872694 -7.783697 -7.691253 -7.594222 -7.501015 -7.40554 -7.306183 -7.205534 -7.098584 -6.997014 -6.942636 -6.889511 -6.835545 -6.784661 -6.734898 -6.681949 -6.62861 -6.582418 -6.533751 -6.487362 -6.436965 -6.396249 -6.346756 -6.29749 -6.2613 -6.221062 -6.178997 -6.131645 -6.100599 -6.05974 -6.018878 -5.978016 -5.938805 -5.908581 -5.883811 -5.859837 -5.837154 -5.815703 -5.794866 -5.774581 -5.752921 -5.726099 -5.699278 -5.672459 -5.655787 -5.640517 -5.63107 -5.621808 -5.612598 -5.602922 -5.590246 -5.579229 -5.568412 -5.562816 -5.557724 -5.549115 -5.544117 -5.540761 -5.537561 -5.534445 -5.526023 -5.520636 -5.524435 -5.528233 -5.5271 -5.526704 -5.525311 -5.524806 -5.519917 -5.515048 -5.515361 -5.515667 -5.515972 -5.516266 -5.516558 -5.516843 -5.517123 -5.51738 -5.519946 -5.519475 -5.519003 -5.518619 -5.517597 -5.521149 -5.524004 -5.51919 -5.515435 -5.511682 -5.507926 -5.504172 -5.500419 -5.496663 -5.492908 -5.489154 -5.485401 -5.481645 -5.477891 -5.472256 -5.462254 -5.452272 -5.442326 -5.432513 -5.421649 -5.412398 -5.403536 -5.394665 -5.385792 -5.376918 -5.368045 -5.359174 -5.349685 -5.338499 -5.327308 -5.316013 -5.303634 -5.291875 -5.279376 -5.26687 -5.254641 -5.242328 -5.22995 -5.221605 -5.209156 -5.196826 -5.186417 -5.173817 -5.161046 -5.147291 -5.133535 -5.11978 -5.106025 -5.092676 -5.079194 -5.065597 -5.051884 -5.039443 -5.024965 -5.010063 -4.993035 -4.971641 -4.950309 -4.928957 -4.907699 -4.886521 -4.86541 -4.844358 -4.82337 -4.802443 -4.781577 -4.760654 -4.739723 -4.718934 -4.698281 -4.677687 -4.657155 -4.63668 -4.616264 -4.595761 -4.57528 -4.554858 -4.534523 -4.514373 -4.493554 -4.434772 -4.364173 -4.293574 -4.195261 -4.077003 -3.958745 -3.840487 -3.72223 -3.603972 -3.485714 -3.367455 -3.32741 -3.638965 -3.950518 -9999 -9999 -9999 -9999 -9999 -9999 -9999 -9999 -9999 -9999 -9999 -9999 -9999 -9999 -9999 -9999 -9999 -9999 -9999 -9999 -9999 -9999 -9999 -9999 -9999 -9999 -9999 -9999 -9999 -9999 -9999 -9999 -9999 -9999 -9999 -9999 -9999 -9999 -9999 -9999 -9999 -9999 -9999 -9999 -9999 -9999 -9999 -9999 -9999 -9999 -9999 -9999 -9999 -9999 -9999 -9999 -9999 -9999
-9999 -9999 -9999 -9999 -9999 -9999 -9999 -9999 -9999 -9999 -9999 -9999 -9999 -9999 -9999 -9999 -9999 -9999 -9999 -9999 -9999 -9999 -9999 -9999 -9999 -9999 -9999 -9999 -9999 -9999 -9999 -9999 -9999 -9999 -9999 -9999 -9999 -9999 -9999 -9999 -9999 -9999 -9999 -10 -10 -10 -10 -10 -10 -10 -10 -10 -10 -10 -9.959653 -9.901386 -9.841722 -9.780884 -9.718822 -9.658719 -9.593807 -9.528129 -9.461688 -9.399014 -9.331278 -9.262413 -9.198614 -9.134399 -9.067431 -9.000574 -8.925253 -8.858094 -8.783275 -8.706383 -8.63234 -8.559865 -8.4731 -8.396659 -8.308383 -8.215766 -8.131117 -8.03467 -7.947155 -7.85803 -7.759483 -7.668034 -7.574819 -7.474981 -7.375551 -7.2686 -7.161647 -7.050218 -6.969531 -6.915565 -6.863499 -6.812759 -6.759514 -6.706159 -6.658782 -6.611983 -6.562589 -6.512208 -6.470314 -6.420824 -6.371547 -6.334091 -6.292049 -6.250562 -6.203212 -6.16828 -6.129414 -6.088552 -6.047693 -6.006834 -5.97107 -5.948349 -5.926178 -5.893566 -5.871209 -5.85212 -5.833539 -5.815399 -5.786366 -5.759544 -5.732725 -5.706503 -5.695799 -5.680816 -5.670606 -5.660584 -5.64743 -5.639469 -5.629666 -5.613954 -5.606589 -5.600726 -5.595616 -5.586718 -5.578317 -5.574872 -5.571467 -5.567997 -5.562025 -5.55612 -5.559919 -5.56215 -5.562255 -5.557939 -5.556575 -5.555417 -5.553627 -5.548109 -5.548114 -5.548122 -5.54813 -5.548135 -5.548141 -5.548147 -5.548151 -5.548136 -5.548014 -5.547904 -5.54778 -5.545794 -5.546914 -5.550466 -5.552947 -5.547033 -5.543278 -5.539525 -5.535769 -5.532015 -5.52826 -5.524506 -5.520751 -5.516996 -5.513244 -5.509488 -5.505733 -5.497712 -5.487685 -5.477684 -5.467775 -5.45719 -5.446748 -5.437886 -5.429012 -5.420142 -5.411269 -5.402395 -5.393521 -5.384648 -5.373988 -5.36285 -5.351708 -5.340329 -5.327881 -5.316039 -5.303975 -5.29184 -5.279622 -5.267335 -5.255112 -5.247489 -5.235354 -5.224762 -5.212106 -5.199518 -5.186892 -5.173136 -5.15938 -5.145627 -5.132451 -5.119134 -5.105391 -5.091774 -5.078173 -5.066811 -5.052464 -5.03756 -5.022655 -5.007802 -4.989739 -4.968413 -4.947149 -4.925948 -4.904807 -4.883606 -4.862514 -4.841528 -4.820605 -4.799744 -4.778941 -4.7582 -4.73752 -4.716743 -4.696 -4.675368 -4.654897 -4.634487 -4.614132 -4.593841 -4.573603 -4.552784 -4.524097 -4.453498 -4.382899 -4.299572 -4.181314 -4.063056 -3.944798 -3.82654 -3.708283 -3.590025 -3.471767 -3.353509 -3.572299 -3.883852 -9999 -9999 -9999 -9999 -9999 -9999 -9999 -9999 -9999 -9999 -9999 -9999 -9999 -9999 -9999 -9999 -9999 -9999 -9999 -9999 -9999 -9999 -9999 -9999 -9999 -9999 -9999 -9999 -9999 -9999 -9999 -9999 -9999 -9999 -9999 -9999 -9999 -9999 -9999 -9999 -9999 -9999 -9999 -9999 -9999 -9999 -9999 -9999 -9999 -9999 -9999 -9999 -9999 -9999 -9999 -9999 -9999 -9999 -9999
-9999 -9999 -9999 -9999 -9999 -9999 -9999 -9999 -9999 -9999 -9999 -9999 -9999 -9999 -9999 -9999 -9999 -9999 -9999 -9999 -9999 -9999 -9999 -9999 -9999 -9999 -9999 -9999 -9999 -9999 -9999 -9999 -9999 -9999 -9999 -9999 -9999 -9999 -9999 -9999 -9999 -9999 -9999 -9999 -10 -10 -10 -10 -10 -10 -10 -10 -10 -10 -10 -9.983438 -9.923962 -9.863287 -9.803186 -9.739693 -9.675197 -9.609892 -9.547275 -9.48064 -9.412956 -9.349232 -9.285017 -9.219091 -9.154091 -9.078928 -9.011989 -8.937707 -8.862145 -8.790499 -8.71827 -8.632643 -8.557118 -8.469081 -8.375883 -8.293387 -8.200241 -8.110615 -8.023293 -7.92696 -7.835053 -7.743618 -7.644085 -7.545568 -7.438618 -7.334774 -7.221251 -7.10778 -6.995584 -6.942334 -6.890326 -6.837079 -6.783707 -6.735147 -6.688353 -6.637815 -6.587448 -6.544376 -6.494889 -6.445607 -6.406878 -6.363039 -6.322129 -6.274777 -6.235445 -6.19909 -6.158228 -6.11737 -6.076509 -6.039048 -6.01348 -5.987443 -5.957663 -5.936731 -5.916113 -5.893923 -5.872325 -5.846632 -5.81981 -5.792992 -5.766171 -5.743227 -5.731587 -5.721111 -5.710605 -5.700296 -5.685296 -5.673964 -5.666489 -5.648929 -5.642879 -5.636917 -5.631763 -5.624321 -5.615323 -5.611596 -5.607917 -5.60155 -5.598027 -5.591608 -5.595404 -5.594236 -5.597414 -5.589603 -5.588651 -5.586078 -5.584855 -5.58117 -5.580871 -5.580575 -5.580286 -5.579998 -5.579134 -5.578288 -5.577444 -5.578892 -5.578498 -5.578118 -5.577731 -5.572982 -5.576231 -5.579782 -5.57935 -5.574876 -5.571121 -5.567368 -5.563612 -5.559858 -5.556103 -5.552349 -5.548594 -5.54484 -5.541087 -5.537331 -5.532742 -5.522685 -5.512688 -5.50281 -5.493076 -5.481893 -5.471889 -5.463362 -5.454489 -5.445615 -5.436745 -5.427872 -5.418997 -5.410124 -5.398782 -5.38741 -5.376112 -5.364576 -5.35216 -5.340189 -5.328188 -5.31612 -5.303959 -5.291738 -5.282292 -5.27251 -5.260499 -5.25112 -5.238897 -5.226492 -5.212737 -5.198981 -5.185226 -5.171474 -5.158411 -5.145204 -5.131886 -5.118454 -5.107285 -5.094175 -5.079961 -5.065059 -5.050153 -5.035478 -5.020475 -5.005473 -4.986464 -4.965203 -4.944007 -4.922872 -4.9018 -4.880786 -4.859838 -4.838789 -4.817855 -4.797059 -4.77632 -4.755644 -4.735026 -4.714469 -4.693964 -4.673342 -4.652779 -4.632306 -4.612014 -4.591195 -4.542823 -4.472225 -4.401626 -4.285625 -4.167367 -4.049109 -3.930851 -3.812593 -3.694335 -3.576078 -3.45782 -3.505633 -3.817188 -9999 -9999 -9999 -9999 -9999 -9999 -9999 -9999 -9999 -9999 -9999 -9999 -9999 -9999 -9999 -9999 -9999 -9999 -9999 -9999 -9999 -9999 -9999 -9999 -9999 -9999 -9999 -9999 -9999 -9999 -9999 -9999 -9999 -9999 -9999 -9999 -9999 -9999 -9999 -9999 -9999 -9999 -9999 -9999 -9999 -9999 -9999 -9999 -9999 -9999 -9999 -9999 -9999 -9999 -9999 -9999 -9999 -9999 -9999 -9999
-9999 -9999 -9999 -9999 -9999 -9999 -9999 -9999 -9999 -9999 -9999 -9999 -9999 -9999 -9999 -9999 -9999 -9999 -9999 -9999 -9999 -9999 -9999 -9999 -9999 -9999 -9999 -9999 -9999 -9999 -9999 -9999 -9999 -9999 -9999 -9999 -9999 -9999 -9999 -9999 -9999 -9999 -9999 -9999 -9999 -10 -10 -10 -10 -10 -10 -10 -10 -10 -10 -10 -10 -9.947651 -9.885578 -9.822265 -9.758237 -9.695478 -9.630003 -9.563499 -9.49985 -9.435636 -9.371408 -9.305155 -9.232602 -9.165111 -9.092139 -9.017908 -8.948656 -8.875387 -8.792185 -8.716954 -8.629779 -8.536 -8.455135 -8.365812 -8.274075 -8.188553 -8.096018 -8.002075 -7.912416 -7.816841 -7.715585 -7.608634 -7.50763 -7.392287 -7.281839 -7.167397 -7.047575 -6.967892 -6.914627 -6.861252 -6.811509 -6.763579 -6.71304 -6.66269 -6.618441 -6.568954 -6.519663 -6.479669 -6.434029 -6.393696 -6.346345 -6.302608 -6.268766 -6.227904 -6.187046 -6.146184 -6.107027 -6.072915 -6.047369 -6.024004 -5.9951 -5.971314 -5.948381 -5.927454 -5.908 -5.880077 -5.853258 -5.826437 -5.799615 -5.783699 -5.767374 -5.757008 -5.74682 -5.736704 -5.725105 -5.710172 -5.70084 -5.684556 -5.678144 -5.671844 -5.666138 -5.661649 -5.652327 -5.64832 -5.644365 -5.635103 -5.632806 -5.627092 -5.630888 -5.628807 -5.632568 -5.624314 -5.623047 -5.616785 -5.615294 -5.613853 -5.612644 -5.611458 -5.610292 -5.609149 -5.608026 -5.606919 -5.605814 -5.60965 -5.608981 -5.608335 -5.607685 -5.601996 -5.605548 -5.609008 -5.606473 -5.602717 -5.598964 -5.595211 -5.591455 -5.587701 -5.583946 -5.580193 -5.576437 -5.572683 -5.56893 -5.565174 -5.558197 -5.548118 -5.538059 -5.528068 -5.517749 -5.506989 -5.497531 -5.488839 -5.479965 -5.471092 -5.462221 -5.453348 -5.444474 -5.434448 -5.423428 -5.412416 -5.401273 -5.388826 -5.377196 -5.365294 -5.353319 -5.341219 -5.328728 -5.316175 -5.309503 -5.297527 -5.285645 -5.276672 -5.264598 -5.252338 -5.238583 -5.224827 -5.211072 -5.197319 -5.184371 -5.171273 -5.158064 -5.144745 -5.136107 -5.122362 -5.10746 -5.092555 -5.078156 -5.063151 -5.048151 -5.033335 -5.018249 -5.003179 -4.983231 -4.962014 -4.940885 -4.919815 -4.898808 -4.877862 -4.856977 -4.836154 -4.815378 -4.794488 -4.773715 -4.753101 -4.73255 -4.712056 -4.69162 -4.671245 -4.650424 -4.629602 -4.56155 -4.490951 -4.389935 -4.271677 -4.153419 -4.035161 -3.916904 -3.798646 -3.680387 -3.562131 -3.443873 -3.750521 -4.062074 -9999 -9999 -9999 -9999 -9999 -9999 -9999 -9999 -9999 -9999 -9999 -9999 -9999 -9999 -9999 -9999 -9999 -9999 -9999 -9999 -9999 -9999 -9999 -9999 -9999 -9999 -9999 -9999 -9999 -9999 -9999 -9999 -9999 -9999 -9999 -9999 -9999 -9999 -9999 -9999 -9999 -9999 -9999 -9999 -9999 -9999 -9999 -9999 -9999 -9999 -9999 -9999 -9999 -9999 -9999 -9999 -9999 -9999 -9999 -9999
-9999 -9999 -9999 -9999 -9999 -9999 -9999 -9999 -9999 -9999 -9999 -9999 -9999 -9999 -9999 -9999 -9999 -9999 -9999 -9999 -9999 -9999 -9999 -9999 -9999 -9999 -9999 -9999 -9999 -9999 -9999 -9999 -9999 -9999 -9999 -9999 -9999 -9999 -9999 -9999 -9999 -9999 -9999 -9999 -9999 -9999 -9999 -10 -10 -10 -10 -10 -10 -10 -10 -10 -10 -10 -9.969334 -9.907033 -9.843682 -9.779366 -9.714042 -9.650461 -9.586253 -9.522038 -9.456219 -9.386276 -9.318236 -9.246572 -9.173942 -9.106814 -9.032505 -8.951728 -8.876793 -8.790477 -8.69844 -8.616883 -8.531385 -8.438195 -8.353814 -8.265077 -8.169095 -8.081213 -7.989594 -7.885602 -7.778652 -7.678668 -7.566754 -7.455897 -7.344552 -7.224728 -7.103566 -6.992176 -6.9388 -6.887872 -6.838806 -6.788279 -6.737933 -6.692505 -6.643023 -6.593722 -6.552457 -6.50502 -6.465261 -6.417912 -6.370562 -6.338442 -6.297581 -6.256721 -6.21586 -6.175004 -6.139292 -6.114518 -6.090343 -6.055489 -6.033268 -6.012071 -5.991356 -5.970068 -5.940343 -5.913524 -5.886703 -5.859881 -5.834242 -5.822669 -5.806938 -5.795797 -5.784871 -5.77155 -5.762529 -5.749591 -5.735565 -5.722733 -5.716053 -5.709737 -5.700512 -5.695747 -5.68933 -5.685045 -5.680813 -5.668656 -5.66608 -5.662577 -5.666376 -5.663962 -5.667727 -5.659026 -5.657446 -5.649518 -5.64573 -5.644094 -5.642605 -5.641142 -5.639709 -5.638299 -5.637191 -5.636413 -5.635625 -5.640406 -5.639465 -5.638553 -5.637636 -5.631313 -5.634865 -5.638103 -5.634316 -5.63056 -5.626807 -5.623054 -5.619298 -5.615542 -5.611789 -5.608036 -5.60428 -5.600526 -5.59677 -5.593017 -5.58332 -5.573366 -5.563434 -5.553517 -5.542428 -5.532089 -5.523188 -5.514315 -5.505442 -5.496568 -5.487695 -5.478824 -5.469951 -5.458751 -5.447779 -5.436819 -5.425521 -5.413077 -5.40135 -5.389507 -5.377595 -5.365592 -5.353522 -5.343021 -5.335863 -5.324173 -5.313515 -5.302227 -5.290299 -5.278183 -5.264431 -5.250676 -5.23692 -5.224146 -5.211215 -5.198175 -5.184667 -5.171034 -5.163474 -5.149858 -5.134956 -5.120051 -5.10583 -5.090827 -5.075828 -5.061167 -5.046082 -5.031154 -5.01607 -5.000845 -4.979999 -4.958903 -4.937852 -4.916776 -4.895833 -4.874955 -4.854134 -4.833375 -4.812675 -4.792037 -4.771406 -4.7507 -4.730085 -4.709652 -4.688833 -4.650874 -4.580276 -4.494246 -4.375988 -4.25773 -4.139472 -4.021214 -3.902957 -3.784699 -3.666441 -3.548182 -3.683855 -3.995409 -9999 -9999 -9999 -9999 -9999 -9999 -9999 -9999 -9999 -9999 -9999 -9999 -9999 -9999 -9999 -9999 -9999 -9999 -9999 -9999 -9999 -9999 -9999 -9999 -9999 -9999 -9999 -9999 -9999 -9999 -9999 -9999 -9999 -9999 -9999 -9999 -9999 -9999 -9999 -9999 -9999 -9999 -9999 -9999 -9999 -9999 -9999 -9999 -9999 -9999 -9999 -9999 -9999 -9999 -9999 -9999 -9999 -9999 -9999 -9999 -9999
-9999 -9999 -9999 -9999 -9999 -9999 -9999 -9999 -9999 -9999 -9999 -9999 -9999 -9999 -9999 -9999 -9999 -9999 -9999 -9999 -9999 -9999 -9999 -9999 -9999 -9999 -9999 -9999 -9999 -9999 -9999 -9999 -9999 -9999 -9999 -9999 -9999 -9999 -9999 -9999 -9999 -9999 -9999 -9999 -9999 -9999 -9999 -9999 -10 -10 -10 -10 -10 -10 -10 -10 -10 -10 -10 -9.991886 -9.928728 -9.864585 -9.801004 -9.736871 -9.672656 -9.607282 -9.53995 -9.47136 -9.401003 -9.330738 -9.263025 -9.189623 -9.11127 -9.036631 -8.951175 -8.862328 -8.778632 -8.696955 -8.605518 -8.519074 -8.434135 -8.338786 -8.250011 -8.162346 -8.055619 -7.948748 -7.8497 -7.747334 -7.629959 -7.521707 -7.401596 -7.280282 -7.161901 -7.038723 -6.964234 -6.914032 -6.863519 -6.813174 -6.766568 -6.717088 -6.667782 -6.625248 -6.577077 -6.536829 -6.489478 -6.442127 -6.408118 -6.367257 -6.326396 -6.285536 -6.244675 -6.20727 -6.177813 -6.149796 -6.12183 -6.096637 -6.071724 -6.047441 -6.023803 -6.000609 -5.97379 -5.94697 -5.920148 -5.893329 -5.871139 -5.858457 -5.847237 -5.8358 -5.824583 -5.807479 -5.797018 -5.788438 -5.770288 -5.760911 -5.753961 -5.74763 -5.736176 -5.729861 -5.725027 -5.720441 -5.715949 -5.702768 -5.699357 -5.698061 -5.70186 -5.699121 -5.699226 -5.693737 -5.691846 -5.683228 -5.676168 -5.674333 -5.672893 -5.671762 -5.670653 -5.669562 -5.668492 -5.667439 -5.66638 -5.671162 -5.66995 -5.668768 -5.66723 -5.660631 -5.664183 -5.667202 -5.662159 -5.658403 -5.654651 -5.650897 -5.647141 -5.643385 -5.639632 -5.635879 -5.632123 -5.628369 -5.624613 -5.618687 -5.608549 -5.598434 -5.58836 -5.578311 -5.567233 -5.557189 -5.548662 -5.539791 -5.530918 -5.522044 -5.513171 -5.5043 -5.494908 -5.484007 -5.473123 -5.462006 -5.449772 -5.438357 -5.426447 -5.414261 -5.402004 -5.389932 -5.377924 -5.370203 -5.360881 -5.349319 -5.341378 -5.329677 -5.317784 -5.304029 -5.290277 -5.276522 -5.262766 -5.250104 -5.237286 -5.224357 -5.211317 -5.201127 -5.190842 -5.177358 -5.162456 -5.147551 -5.133505 -5.118505 -5.103501 -5.088997 -5.073912 -5.059129 -5.044188 -5.029454 -5.013947 -4.997872 -4.976782 -4.955753 -4.934787 -4.91388 -4.892977 -4.872064 -4.851307 -4.830613 -4.809976 -4.7894 -4.768884 -4.748064 -4.727242 -4.6696 -4.598556 -4.480299 -4.362041 -4.243783 -4.125525 -4.007267 -3.88901 -3.770752 -3.652494 -3.61719 -3.928743 -4.240295 -9999 -9999 -9999 -9999 -9999 -9999 -9999 -9999 -9999 -9999 -9999 -9999 -9999 -9999 -9999 -9999 -9999 -9999 -9999 -9999 -9999 -9999 -9999 -9999 -9999 -9999 -9999 -9999 -9999 -9999 -9999 -9999 -9999 -9999 -9999 -9999 -9999 -9999 -9999 -9999 -9999 -9999 -9999 -9999 -9999 -9999 -9999 -9999 -9999 -9999 -9999 -9999 -9999 -9999 -9999 -9999 -9999 -9999 -9999 -9999 -9999
-9999 -9999 -9999 -9999 -9999 -9999 -9999 -9999 -9999 -9999 -9999 -9999 -9999 -9999 -9999 -9999 -9999 -9999 -9999 -9999 -9999 -9999 -9999 -9999 -9999 -9999 -9999 -9999 -9999 -9999 -9999 -9999 -9999 -9999 -9999 -9999 -9999 -9999 -9999 -9999 -9999 -9999 -9999 -9999 -9999 -9999 -9999 -9999 -9999 -10 -10 -10 -10 -10 -10 -10 -10 -10 -10 -10 -10 -9.951547 -9.887488 -9.823274 -9.758346 -9.693625 -9.624484 -9.555435 -9.487534 -9.418788 -9.346741 -9.270813 -9.196469 -9.111873 -9.026219 -8.94038 -8.862526 -8.772841 -8.684336 -8.602309 -8.509626 -8.41881 -8.332587 -8.225636 -8.126205 -8.020737 -7.921401 -7.806975 -7.69886 -7.57831 -7.461833 -7.341977 -7.222824 -7.097878 -6.989255 -6.938761 -6.888414 -6.840632 -6.791155 -6.741839 -6.697638 -6.649868 -6.608397 -6.561046 -6.513694 -6.477795 -6.436933 -6.396071 -6.355213 -6.314351 -6.275249 -6.239535 -6.213539 -6.188169 -6.153315 -6.129807 -6.107255 -6.085271 -6.063808 -6.034056 -6.007234 -5.980414 -5.953595 -5.926775 -5.911613 -5.894241 -5.882943 -5.871834 -5.860813 -5.847291 -5.831515 -5.822627 -5.805162 -5.798008 -5.790956 -5.784645 -5.77378 -5.763999 -5.759021 -5.75417 -5.749502 -5.73877 -5.73263 -5.733549 -5.737345 -5.734275 -5.730471 -5.727331 -5.7244 -5.716938 -5.708276 -5.706796 -5.705346 -5.70392 -5.702519 -5.701146 -5.699796 -5.698467 -5.697136 -5.700398 -5.698332 -5.696303 -5.694366 -5.689948 -5.6935 -5.6963 -5.690001 -5.686246 -5.682494 -5.67874 -5.674984 -5.671228 -5.667475 -5.663722 -5.659966 -5.656212 -5.652457 -5.644056 -5.633982 -5.623845 -5.613811 -5.602987 -5.59233 -5.582693 -5.574138 -5.565265 -5.556394 -5.547521 -5.538647 -5.529774 -5.519211 -5.508358 -5.497524 -5.486466 -5.474022 -5.462511 -5.450827 -5.439074 -5.427226 -5.41531 -5.403753 -5.397399 -5.385901 -5.374465 -5.366931 -5.355378 -5.34363 -5.329875 -5.316123 -5.302367 -5.288611 -5.276064 -5.263354 -5.250535 -5.237607 -5.231272 -5.218206 -5.204855 -5.189952 -5.176185 -5.161182 -5.14618 -5.131916 -5.11683 -5.102269 -5.087546 -5.07326 -5.058064 -5.042556 -5.027204 -5.011606 -4.99461 -4.973587 -4.952623 -4.931723 -4.91088 -4.8901 -4.869378 -4.848621 -4.827865 -4.807292 -4.786471 -4.758925 -4.688326 -4.584609 -4.466352 -4.348094 -4.229836 -4.111578 -3.99332 -3.875063 -3.756805 -3.638547 -3.862077 -4.173632 -9999 -9999 -9999 -9999 -9999 -9999 -9999 -9999 -9999 -9999 -9999 -9999 -9999 -9999 -9999 -9999 -9999 -9999 -9999 -9999 -9999 -9999 -9999 -9999 -9999 -9999 -9999 -9999 -9999 -9999 -9999 -9999 -9999 -9999 -9999 -9999 -9999 -9999 -9999 -9999 -9999 -9999 -9999 -9999 -9999 -9999 -9999 -9999 -9999 -9999 -9999 -9999 -9999 -9999 -9999 -9999 -9999 -9999 -9999 -9999 -9999 -9999
-9999 -9999 -9999 -9999 -9999 -9999 -9999 -9999 -9999 -9999 -9999 -9999 -9999 -9999 -9999 -9999 -9999 -9999 -9999 -9999 -9999 -9999 -9999 -9999 -9999 -9999 -9999 -9999 -9999 -9999 -9999 -9999 -9999 -9999 -9999 -9999 -9999 -9999 -9999 -9999 -9999 -9999 -9999 -9999 -9999 -9999 -9999 -9999 -9999 -9999 -10 -10 -10 -10 -10 -10 -10 -10 -10 -10 -10 -10 -9.973892 -9.909411 -9.845005 -9.777608 -9.709866 -9.644027 -9.574551 -9.503859 -9.430356 -9.356307 -9.272283 -9.190108 -9.104936 -9.026073 -8.940165 -8.850711 -8.76933 -8.680467 -8.587607 -8.502603 -8.395653 -8.303663 -8.191773 -8.095461 -7.990818 -7.876011 -7.75503 -7.645988 -7.522049 -7.406923 -7.286948 -7.164287 -7.036388 -6.963656 -6.914697 -6.865222 -6.815899 -6.769856 -6.722659 -6.679962 -6.63261 -6.585259 -6.547471 -6.506609 -6.465747 -6.424889 -6.384027 -6.343226 -6.307515 -6.280687 -6.253428 -6.219656 -6.195333 -6.172022 -6.146499 -6.121546 -6.094319 -6.0675 -6.04068 -6.013861 -5.987041 -5.961978 -5.949536 -5.933063 -5.920991 -5.909157 -5.895669 -5.885588 -5.869514 -5.857172 -5.840292 -5.832891 -5.825591 -5.81902 -5.811383 -5.799407 -5.79429 -5.789235 -5.783052 -5.774775 -5.765903 -5.769032 -5.769941 -5.769433 -5.761699 -5.758237 -5.75501 -5.750647 -5.741337 -5.739552 -5.737798 -5.736078 -5.734388 -5.732728 -5.7311 -5.729496 -5.727892 -5.728198 -5.725895 -5.723612 -5.721498 -5.719265 -5.722816 -5.723388 -5.717844 -5.714089 -5.710337 -5.706581 -5.702827 -5.699071 -5.695319 -5.691565 -5.687809 -5.684053 -5.679173 -5.668979 -5.658813 -5.648756 -5.638875 -5.627662 -5.61743 -5.608397 -5.599614 -5.590741 -5.58187 -5.572997 -5.564123 -5.55525 -5.54417 -5.533095 -5.522004 -5.510717 -5.498854 -5.486888 -5.475043 -5.463354 -5.451563 -5.439712 -5.430933 -5.424237 -5.412992 -5.402267 -5.392484 -5.381079 -5.369479 -5.355723 -5.341968 -5.328213 -5.315839 -5.303296 -5.290646 -5.277882 -5.264841 -5.260138 -5.247254 -5.232355 -5.217449 -5.20386 -5.188858 -5.173855 -5.159749 -5.14466 -5.130243 -5.115664 -5.10218 -5.086671 -5.071572 -5.055974 -5.040379 -5.024902 -5.009447 -4.991382 -4.97041 -4.949512 -4.928676 -4.907897 -4.88718 -4.866521 -4.845702 -4.824882 -4.777651 -4.68892 -4.570662 -4.452404 -4.334146 -4.215889 -4.097631 -3.979373 -3.861115 -3.742858 -3.795412 -4.106965 -4.418519 -9999 -9999 -9999 -9999 -9999 -9999 -9999 -9999 -9999 -9999 -9999 -9999 -9999 -9999 -9999 -9999 -9999 -9999 -9999 -9999 -9999 -9999 -9999 -9999 -9999 -9999 -9999 -9999 -9999 -9999 -9999 -9999 -9999 -9999 -9999 -9999 -9999 -9999 -9999 -9999 -9999 -9999 -9999 -9999 -9999 -9999 -9999 -9999 -9999 -9999 -9999 -9999 -9999 -9999 -9999 -9999 -9999 -9999 -9999 -9999 -9999 -9999
-9999 -9999 -9999 -9999 -9999 -9999 -9999 -9999 -9999 -9999 -9999 -9999 -9999 -9999 -9999 -9999 -9999 -9999 -9999 -9999 -9999 -9999 -9999 -9999 -9999 -9999 -9999 -9999 -9999 -9999 -9999 -9999 -9999 -9999 -9999 -9999 -9999 -9999 -9999 -9999 -9999 -9999 -9999 -9999 -9999 -9999 -9999 -9999 -9999 -9999 -9999 -9999 -10 -10 -10 -10 -10 -10 -10 -10 -10 -10 -10 -9.996069 -9.930732 -9.864299 -9.798458 -9.730313 -9.660975 -9.589898 -9.516146 -9.4324 -9.353998 -9.270507 -9.189533 -9.107487 -9.01977 -8.93635 -8.851308 -8.759696 -8.672621 -8.56567 -8.478151 -8.371903 -8.26952 -8.172991 -8.053057 -7.931746 -7.826061 -7.711605 -7.591023 -7.4847 -7.355944 -7.231911 -7.103094 -6.98876 -6.939289 -6.889956 -6.842072 -6.795447 -6.75153 -6.704178 -6.656826 -6.617146 -6.576285 -6.535424 -6.494565 -6.453703 -6.412841 -6.375492 -6.342148 -6.312559 -6.285995 -6.254583 -6.227335 -6.20244 -6.17919 -6.156412 -6.127766 -6.100946 -6.074126 -6.047305 -6.020485 -5.999053 -5.985324 -5.973359 -5.960993 -5.948866 -5.930474 -5.920074 -5.908935 -5.891899 -5.877055 -5.869289 -5.861749 -5.853395 -5.847394 -5.836411 -5.831013 -5.825683 -5.816606 -5.810777 -5.80072 -5.804519 -5.802031 -5.804588 -5.79293 -5.789696 -5.785656 -5.782457 -5.774398 -5.772305 -5.77025 -5.768235 -5.766254 -5.76431 -5.762403 -5.760522 -5.75865 -5.756662 -5.754722 -5.752792 -5.748684 -5.748582 -5.752131 -5.749794 -5.745687 -5.741933 -5.73818 -5.734424 -5.73067 -5.726914 -5.723162 -5.719408 -5.715652 -5.711896 -5.704629 -5.694412 -5.68422 -5.674105 -5.663548 -5.652574 -5.642529 -5.633964 -5.62509 -5.616217 -5.607346 -5.598473 -5.5896 -5.579671 -5.568936 -5.558229 -5.547411 -5.534966 -5.523668 -5.512146 -5.500553 -5.488857 -5.476912 -5.464725 -5.458116 -5.449255 -5.438138 -5.430826 -5.41936 -5.407786 -5.395325 -5.381569 -5.367814 -5.354059 -5.3418 -5.329364 -5.316824 -5.304179 -5.294966 -5.287506 -5.274755 -5.259851 -5.244946 -5.231534 -5.216535 -5.201532 -5.187579 -5.172493 -5.158216 -5.143781 -5.130788 -5.115283 -5.100346 -5.084747 -5.069152 -5.053817 -5.039038 -5.022996 -5.007002 -4.988161 -4.967298 -4.946495 -4.925645 -4.904932 -4.884112 -4.863293 -4.793231 -4.674973 -4.556715 -4.438457 -4.320199 -4.201941 -4.083684 -3.965426 -3.847167 -3.728911 -4.040298 -4.351853 -9999 -9999 -9999 -9999 -9999 -9999 -9999 -9999 -9999 -9999 -9999 -9999 -9999 -9999 -9999 -9999 -9999 -9999 -9999 -9999 -9999 -9999 -9999 -9999 -9999 -9999 -9999 -9999 -9999 -9999 -9999 -9999 -9999 -9999 -9999 -9999 -9999 -9999 -9999 -9999 -9999 -9999 -9999 -9999 -9999 -9999 -9999 -9999 -9999 -9999 -9999 -9999 -9999 -9999 -9999 -9999 -9999 -9999 -9999 -9999 -9999 -9999 -9999
-9999 -9999 -9999 -9999 -9999 -9999 -9999 -9999 -9999 -9999 -9999 -9999 -9999 -9999 -9999 -9999 -9999 -9999 -9999 -9999 -9999 -9999 -9999 -9999 -9999 -9999 -9999 -9999 -9999 -9999 -9999 -9999 -9999 -9999 -9999 -9999 -9999 -9999 -9999 -9999 -9999 -9999 -9999 -9999 -9999 -9999 -9999 -9999 -9999 -9999 -9999 -9999 -9999 -10 -10 -10 -10 -10 -10 -10 -10 -10 -10 -10 -10 -9.95289 -9.886076 -9.818093 -9.749441 -9.675984 -9.593542 -9.517888 -9.436078 -9.352993 -9.27481 -9.188828 -9.103371 -9.022148 -8.932449 -8.842638 -8.740179 -8.649186 -8.552481 -8.44358 -8.350144 -8.229775 -8.12158 -8.006134 -7.900067 -7.775123 -7.676356 -7.5476 -7.427433 -7.302518 -7.169158 -7.035967 -6.964015 -6.914956 -6.868237 -6.823094 -6.775743 -6.728394 -6.686821 -6.645961 -6.6051 -6.56424 -6.523379 -6.482518 -6.44347 -6.407757 -6.379707 -6.352333 -6.317482 -6.29187 -6.267206 -6.243089 -6.219289 -6.188032 -6.161212 -6.13439 -6.107571 -6.080751 -6.053932 -6.039526 -6.021111 -6.008881 -5.996849 -5.984919 -5.969475 -5.954569 -5.944576 -5.926622 -5.915232 -5.907198 -5.899642 -5.88777 -5.881493 -5.873415 -5.867736 -5.862131 -5.85016 -5.846078 -5.836205 -5.840003 -5.835982 -5.839746 -5.827449 -5.824095 -5.81636 -5.812896 -5.807459 -5.805058 -5.802705 -5.800393 -5.797714 -5.794909 -5.79215 -5.789426 -5.789406 -5.787145 -5.784937 -5.782743 -5.775874 -5.777899 -5.781302 -5.777285 -5.77353 -5.769776 -5.766023 -5.762267 -5.758512 -5.754757 -5.751005 -5.747249 -5.743495 -5.739659 -5.729527 -5.719442 -5.70938 -5.69944 -5.68823 -5.677673 -5.667881 -5.65944 -5.650567 -5.641693 -5.63282 -5.623949 -5.615076 -5.603974 -5.593287 -5.582633 -5.571662 -5.559216 -5.547822 -5.536363 -5.52483 -5.513196 -5.501496 -5.491663 -5.485297 -5.474276 -5.463284 -5.457189 -5.446159 -5.434926 -5.421171 -5.407415 -5.39366 -5.380252 -5.367761 -5.355433 -5.343006 -5.330471 -5.325093 -5.314872 -5.302251 -5.287347 -5.273063 -5.259212 -5.24421 -5.230497 -5.215412 -5.201356 -5.187139 -5.173409 -5.1594 -5.143891 -5.129117 -5.113521 -5.097926 -5.08273 -5.068625 -5.052587 -5.036777 -5.020637 -5.004525 -4.98496 -4.964162 -4.943343 -4.922523 -4.885703 -4.779284 -4.661026 -4.542768 -4.42451 -4.306252 -4.187994 -4.069737 -3.951479 -3.833221 -3.973634 -4.285186 -9999 -9999 -9999 -9999 -9999 -9999 -9999 -9999 -9999 -9999 -9999 -9999 -9999 -9999 -9999 -9999 -9999 -9999 -9999 -9999 -9999 -9999 -9999 -9999 -9999 -9999 -9999 -9999 -9999 -9999 -9999 -9999 -9999 -9999 -9999 -9999 -9999 -9999 -9999 -9999 -9999 -9999 -9999 -9999 -9999 -9999 -9999 -9999 -9999 -9999 -9999 -9999 -9999 -9999 -9999 -9999 -9999 -9999 -9999 -9999 -9999 -9999 -9999 -9999
-9999 -9999 -9999 -9999 -9999 -9999 -9999 -9999 -9999 -9999 -9999 -9999 -9999 -9999 -9999 -9999 -9999 -9999 -9999 -9999 -9999 -9999 -9999 -9999 -9999 -9999 -9999 -9999 -9999 -9999 -9999 -9999 -9999 -9999 -9999 -9999 -9999 -9999 -9999 -9999 -9999 -9999 -9999 -9999 -9999 -9999 -9999 -9999 -9999 -9999 -9999 -9999 -9999 -9999 -10 -10 -10 -10 -10 -10 -10 -10 -10 -10 -10 -10 -9.975211 -9.908205 -9.835822 -9.757431 -9.681777 -9.601649 -9.519784 -9.442133 -9.357887 -9.272033 -9.192989 -9.105203 -9.012655 -8.917637 -8.820222 -8.733061 -8.626408 -8.527298 -8.406491 -8.310146 -8.189849 -8.084168 -7.972972 -7.868013 -7.748651 -7.622958 -7.501942 -7.368591 -7.235458 -7.102729 -6.989015 -6.941026 -6.894662 -6.847311 -6.799962 -6.754562 -6.715638 -6.674776 -6.633914 -6.593055 -6.552194 -6.511449 -6.475735 -6.446856 -6.415778 -6.383821 -6.356121 -6.327744 -6.300014 -6.273107 -6.249013 -6.221478 -6.194656 -6.167837 -6.141017 -6.114197 -6.089717 -6.076406 -6.059185 -6.046186 -6.033442 -6.019787 -6.008648 -5.989439 -5.978783 -5.961398 -5.953139 -5.944994 -5.937528 -5.923241 -5.915605 -5.909294 -5.90332 -5.897451 -5.883712 -5.879352 -5.871692 -5.875487 -5.87114 -5.871751 -5.862161 -5.858494 -5.847065 -5.843332 -5.839705 -5.836404 -5.833167 -5.829987 -5.826866 -5.823798 -5.820785 -5.817797 -5.820162 -5.817629 -5.815153 -5.812697 -5.803665 -5.807217 -5.8104 -5.805128 -5.801373 -5.797619 -5.793866 -5.79011 -5.786355 -5.7826 -5.778848 -5.775092 -5.771338 -5.765116 -5.754845 -5.744596 -5.734397 -5.724113 -5.712893 -5.702773 -5.693532 -5.684916 -5.676043 -5.66717 -5.658296 -5.649423 -5.640131 -5.629516 -5.618909 -5.607998 -5.595912 -5.584829 -5.573465 -5.561713 -5.549819 -5.537855 -5.525898 -5.518845 -5.512611 -5.501812 -5.491023 -5.482741 -5.47186 -5.460771 -5.447015 -5.43326 -5.419508 -5.407536 -5.395378 -5.383116 -5.370751 -5.358679 -5.355428 -5.343183 -5.329751 -5.314847 -5.301888 -5.286887 -5.271884 -5.258327 -5.243241 -5.229331 -5.215253 -5.203515 -5.188006 -5.173488 -5.157889 -5.142294 -5.127316 -5.114255 -5.098216 -5.082692 -5.066551 -5.050478 -5.034472 -5.018239 -5.002005 -4.98175 -4.96093 -4.883594 -4.765336 -4.647079 -4.528821 -4.410563 -4.292305 -4.174047 -4.055789 -3.937532 -3.906968 -4.218523 -4.530076 -9999 -9999 -9999 -9999 -9999 -9999 -9999 -9999 -9999 -9999 -9999 -9999 -9999 -9999 -9999 -9999 -9999 -9999 -9999 -9999 -9999 -9999 -9999 -9999 -9999 -9999 -9999 -9999 -9999 -9999 -9999 -9999 -9999 -9999 -9999 -9999 -9999 -9999 -9999 -9999 -9999 -9999 -9999 -9999 -9999 -9999 -9999 -9999 -9999 -9999 -9999 -9999 -9999 -9999 -9999 -9999 -9999 -9999 -9999 -9999 -9999 -9999 -9999 -9999
-9999 -9999 -9999 -9999 -9999 -9999 -9999 -9999 -9999 -9999 -9999 -9999 -9999 -9999 -9999 -9999 -9999 -9999 -9999 -9999 -9999 -9999 -9999 -9999 -9999 -9999 -9999 -9999 -9999 -9999 -9999 -9999 -9999 -9999 -9999 -9999 -9999 -9999 -9999 -9999 -9999 -9999 -9999 -9999 -9999 -9999 -9999 -9999 -9999 -9999 -9999 -9999 -9999 -9999 -9999 -10 -10 -10 -10 -10 -10 -10 -10 -10 -10 -10 -10 -9.995661 -9.921321 -9.845667 -9.767219 -9.687106 -9.609188 -9.526947 -9.442874 -9.362638 -9.277956 -9.182674 -9.095096 -8.996468 -8.909082 -8.810248 -8.704452 -8.590501 -8.490219 -8.384471 -8.268269 -8.1714 -8.059671 -7.94931 -7.81848 -7.701365 -7.568082 -7.434951 -7.302549 -7.171755 -7.038281 -6.966228 -6.918879 -6.871527 -6.824175 -6.785314 -6.744452 -6.70359 -6.662732 -6.62187 -6.581008 -6.543715 -6.508 -6.478725 -6.450159 -6.415308 -6.388406 -6.362391 -6.337007 -6.312217 -6.281744 -6.254922 -6.228103 -6.201283 -6.174461 -6.147642 -6.126966 -6.112195 -6.099334 -6.086185 -6.073153 -6.054594 -6.043132 -6.02886 -6.013506 -5.996528 -5.988019 -5.97963 -5.971902 -5.960842 -5.949743 -5.943288 -5.937049 -5.931005 -5.917264 -5.912625 -5.907176 -5.910975 -5.906295 -5.902995 -5.896872 -5.892891 -5.880249 -5.873772 -5.869946 -5.866366 -5.862854 -5.859403 -5.856017 -5.852689 -5.849418 -5.846167 -5.850917 -5.848112 -5.845368 -5.842649 -5.832982 -5.836534 -5.839497 -5.832972 -5.829216 -5.825462 -5.821706 -5.817953 -5.814198 -5.810444 -5.806691 -5.802935 -5.799181 -5.790267 -5.780124 -5.770001 -5.75985 -5.748787 -5.737916 -5.72787 -5.719263 -5.71039 -5.701519 -5.692646 -5.683772 -5.674899 -5.664433 -5.653866 -5.64334 -5.632607 -5.620162 -5.608983 -5.597682 -5.586308 -5.57483 -5.563284 -5.552395 -5.546026 -5.537632 -5.526958 -5.519578 -5.508518 -5.497561 -5.486617 -5.472861 -5.459106 -5.445354 -5.433496 -5.421446 -5.409295 -5.39704 -5.388807 -5.384169 -5.372149 -5.357248 -5.342343 -5.329565 -5.314562 -5.299562 -5.28616 -5.271074 -5.257306 -5.243371 -5.232123 -5.216618 -5.20226 -5.186663 -5.171068 -5.156229 -5.143846 -5.127807 -5.112465 -5.096324 -5.080649 -5.064416 -5.048185 -5.031952 -5.015719 -4.987906 -4.869647 -4.751389 -4.633132 -4.514874 -4.396616 -4.278358 -4.1601 -4.041842 -3.923585 -4.151856 -4.463408 -9999 -9999 -9999 -9999 -9999 -9999 -9999 -9999 -9999 -9999 -9999 -9999 -9999 -9999 -9999 -9999 -9999 -9999 -9999 -9999 -9999 -9999 -9999 -9999 -9999 -9999 -9999 -9999 -9999 -9999 -9999 -9999 -9999 -9999 -9999 -9999 -9999 -9999 -9999 -9999 -9999 -9999 -9999 -9999 -9999 -9999 -9999 -9999 -9999 -9999 -9999 -9999 -9999 -9999 -9999 -9999 -9999 -9999 -9999 -9999 -9999 -9999 -9999 -9999 -9999
-9999 -9999 -9999 -9999 -9999 -9999 -9999 -9999 -9999 -9999 -9999 -9999 -9999 -9999 -9999 -9999 -9999 -9999 -9999 -9999 -9999 -9999 -9999 -9999 -9999 -9999 -9999 -9999 -9999 -9999 -9999 -9999 -9999 -9999 -9999 -9999 -9999 -9999 -9999 -9999 -9999 -9999 -9999 -9999 -9999 -9999 -9999 -9999 -9999 -9999 -9999 -9999 -9999 -9999 -9999 -9999 -9999 -10 -10 -10 -10 -10 -10 -10 -10 -10 -10 -10 -10 -9.932792 -9.854429 -9.774463 -9.696006 -9.613714 -9.531436 -9.450708 -9.354152 -9.272553 -9.177049 -9.083141 -8.994089 -8.881236 -8.781328 -8.670293 -8.577314 -8.460568 -8.369827 -8.251328 -8.144834 -8.022767 -7.900792 -7.767573 -7.634741 -7.502368 -7.373447 -7.239975 -7.106524 -6.990446 -6.943094 -6.895743 -6.85499 -6.814128 -6.773266 -6.732408 -6.691546 -6.650684 -6.611691 -6.57598 -6.545877 -6.5165 -6.481646 -6.453929 -6.427156 -6.399073 -6.370768 -6.34201 -6.315188 -6.288369 -6.261549 -6.234727 -6.207908 -6.181421 -6.16744 -6.147978 -6.134816 -6.121861 -6.109025 -6.091659 -6.077623 -6.066526 -6.048231 -6.031654 -6.0229 -6.014266 -6.006279 -5.998445 -5.983881 -5.977283 -5.970781 -5.964556 -5.951519 -5.945901 -5.94266 -5.945647 -5.941453 -5.934233 -5.928993 -5.923994 -5.913959 -5.904208 -5.900185 -5.896326 -5.892538 -5.88882 -5.885735 -5.882749 -5.879809 -5.876894 -5.880849 -5.877192 -5.873607 -5.870111 -5.862299 -5.865849 -5.867425 -5.860815 -5.857059 -5.853305 -5.849549 -5.845796 -5.842041 -5.838287 -5.834534 -5.830778 -5.825604 -5.815275 -5.804974 -5.794699 -5.784677 -5.773466 -5.763013 -5.753069 -5.744739 -5.735866 -5.726993 -5.718122 -5.709249 -5.700375 -5.689559 -5.678782 -5.667996 -5.656857 -5.645545 -5.633965 -5.622318 -5.610603 -5.599167 -5.587686 -5.579576 -5.573207 -5.56265 -5.552103 -5.547448 -5.536939 -5.526218 -5.512463 -5.49871 -5.484954 -5.472315 -5.460081 -5.447699 -5.435473 -5.423333 -5.418933 -5.411537 -5.399648 -5.384745 -5.36984 -5.357242 -5.342239 -5.329079 -5.313991 -5.300446 -5.286729 -5.273571 -5.260735 -5.245226 -5.231031 -5.215436 -5.200389 -5.185163 -5.173433 -5.157395 -5.142241 -5.1261 -5.110599 -5.094366 -5.078133 -5.0619 -5.045667 -4.973958 -4.8557 -4.737442 -4.619184 -4.500926 -4.382669 -4.264411 -4.146152 -4.027894 -4.085189 -4.396742 -4.708297 -9999 -9999 -9999 -9999 -9999 -9999 -9999 -9999 -9999 -9999 -9999 -9999 -9999 -9999 -9999 -9999 -9999 -9999 -9999 -9999 -9999 -9999 -9999 -9999 -9999 -9999 -9999 -9999 -9999 -9999 -9999 -9999 -9999 -9999 -9999 -9999 -9999 -9999 -9999 -9999 -9999 -9999 -9999 -9999 -9999 -9999 -9999 -9999 -9999 -9999 -9999 -9999 -9999 -9999 -9999 -9999 -9999 -9999 -9999 -9999 -9999 -9999 -9999 -9999 -9999
-9999 -9999 -9999 -9999 -9999 -9999 -9999 -9999 -9999 -9999 -9999 -9999 -9999 -9999 -9999 -9999 -9999 -9999 -9999 -9999 -9999 -9999 -9999 -9999 -9999 -9999 -9999 -9999 -9999 -9999 -9999 -9999 -9999 -9999 -9999 -9999 -9999 -9999 -9999 -9999 -9999 -9999 -9999 -9999 -9999 -9999 -9999 -9999 -9999 -9999 -9999 -9999 -9999 -9999 -9999 -9999 -9999 -9999 -10 -10 -10 -10 -10 -10 -10 -10 -10 -10 -10 -10 -9.94352 -9.865065 -9.784555 -9.702553 -9.623462 -9.531609 -9.448671 -9.357628 -9.261999 -9.177929 -9.059421 -8.972156 -8.862716 -8.761415 -8.658997 -8.568255 -8.447981 -8.340357 -8.229001 -8.100215 -7.967064 -7.83456 -7.708613 -7.57514 -7.441679 -7.308228 -7.175684 -7.041533 -6.967309 -6.924664 -6.883804 -6.842943 -6.802083 -6.761222 -6.720361 -6.679671 -6.643957 -6.61138 -6.57813 -6.547985 -6.514067 -6.484943 -6.457574 -6.430922 -6.404819 -6.375454 -6.348636 -6.321815 -6.294993 -6.268174 -6.241354 -6.217453 -6.203276 -6.185308 -6.17138 -6.157728 -6.143907 -6.131472 -6.112124 -6.100712 -6.082954 -6.069551 -6.060433 -6.051655 -6.040655 -6.033143 -6.020495 -6.013707 -6.007 -5.998108 -5.987523 -5.979175 -5.978148 -5.977736 -5.976609 -5.96546 -5.9599 -5.954604 -5.947667 -5.934647 -5.930985 -5.927474 -5.924027 -5.92064 -5.917315 -5.914052 -5.910838 -5.907651 -5.908649 -5.904755 -5.900915 -5.897244 -5.891616 -5.895165 -5.893828 -5.888658 -5.884902 -5.881148 -5.877392 -5.87364 -5.869884 -5.86613 -5.862377 -5.858621 -5.851005 -5.840708 -5.830382 -5.820142 -5.809347 -5.798158 -5.788114 -5.778683 -5.770216 -5.761342 -5.752469 -5.743598 -5.734725 -5.724895 -5.714447 -5.704044 -5.693552 -5.681106 -5.670141 -5.658998 -5.647785 -5.636461 -5.625072 -5.613273 -5.606758 -5.600986 -5.590424 -5.579775 -5.573 -5.56264 -5.552063 -5.538311 -5.524556 -5.5108 -5.499228 -5.487456 -5.475585 -5.463613 -5.452519 -5.449059 -5.438901 -5.427147 -5.412241 -5.39992 -5.384917 -5.369915 -5.356909 -5.341824 -5.328421 -5.314847 -5.30485 -5.289341 -5.275403 -5.259805 -5.244209 -5.229726 -5.218029 -5.203024 -5.187744 -5.172014 -5.156579 -5.140543 -5.12431 -5.108078 -5.091846 -5.075613 -4.960011 -4.841753 -4.723495 -4.605237 -4.486979 -4.368721 -4.250464 -4.132206 -4.018526 -4.330078 -4.641631 -9999 -9999 -9999 -9999 -9999 -9999 -9999 -9999 -9999 -9999 -9999 -9999 -9999 -9999 -9999 -9999 -9999 -9999 -9999 -9999 -9999 -9999 -9999 -9999 -9999 -9999 -9999 -9999 -9999 -9999 -9999 -9999 -9999 -9999 -9999 -9999 -9999 -9999 -9999 -9999 -9999 -9999 -9999 -9999 -9999 -9999 -9999 -9999 -9999 -9999 -9999 -9999 -9999 -9999 -9999 -9999 -9999 -9999 -9999 -9999 -9999 -9999 -9999 -9999 -9999 -9999
