ncols         317
nrows         36
xllcorner     306235.69
yllcorner     6062951.10957
cellsize      9.9790167000001
NODATA_value  -9999
-9999 -9999 -9999 -9999 -9999 -9999 -9999 -9999 -9999 -9999 -9999 -9999 -9999 -9999 -9999 -9999 -9999 -9999 -9999 -9999 -9999 -9999 -9999 -9999 -9999 -9999 -9999 -9999 -9999 -9999 -9999 -9999 -9999 -9999 -9999 -9999 -9999 -9999 -9999 -9999 -9999 -9999 -9999 -9999 -9999 -9999 -9999 -9999 -9999 -9999 -9999 -9999 -9999 -9999 -9999 -9999 -9999 -9999 -9999 -9999 -9999 -9999 -9999 -9999 -9999 -9999 -9999 -9999 -9999 1.74359 1.830914 1.917412 2.003789 2.090044 2.176178 2.262192 2.348085 2.433812 2.5 2.5 2.5 2.5 2.5 2.5 2.5 2.5 2.5 2.5 2.5 2.5 2.5 2.5 2.5 2.5 2.5 2.5 2.5 2.5 2.5 2.5 2.5 2.5 2.5 2.5 2.5 2.5 2.5 2.5 2.5 2.5 2.5 2.5 2.5 2.5 2.5 2.5 2.5 2.5 2.5 2.5 2.5 2.5 2.5 2.5 2.5 2.5 2.5 2.5 2.5 2.5 2.5 2.5 2.5 2.5 2.5 2.5 2.5 2.5 2.5 2.5 2.5 2.5 2.5 2.5 2.5 2.5 2.5 2.5 2.5 2.5 2.5 2.5 2.5 2.5 2.248785 1.940918 1.613804 1.261596 0.8986564 0.5357165 0.1727767 -0.1901632 -0.5531031 -0.9160429 -1.182113 -1.149806 -1.209321 -1.364513 -1.520466 -1.676419 -1.832373 -1.982489 -2.241872 -2.415858 -2.625522 -2.86153 -2.70701 -2.765457 -2.68743 -2.687043 -2.662533 -2.710622 -2.842323 -2.975347 -3.108369 -3.212326 -3.191887 -3.056775 -2.960632 -2.921571 -2.818547 -2.713514 -2.704391 -2.586486 -2.585002 -2.461842 -2.45946 -2.34256 -2.332433 -2.221928 -2.203366 -2.093941 -2.060759 -1.979626 -1.914903 -1.899799 -1.824324 -1.824324 -1.824324 -1.818654 -1.801311 -1.739569 -1.705767 -1.674948 -1.672747 -1.673976 -1.570449 -1.515461 -1.451033 -1.311567 -1.204773 -1.125421 -1.078526 -0.9002023 -0.8143939 -0.7559329 -0.6772571 -0.4939078 -1.090628 -0.8589867 -0.5948783 -0.4958493 -0.4633327 -0.3726065 -0.2899195 -0.2339222 -0.1414495 -0.1299423 -0.06326564 -0.01933087 0.02060676 0.1391958 0.1740186 0.246987 0.2595927 0.2462459 0.239202 0.2618958 0.2953872 0.316617 0.3405158 0.3817001 0.434961 0.4211981 0.380587 0.3772287 0.3871426 0.4043147 0.44677 0.4609785 0.4639818 0.4759993 0.4970998 0.4926808 0.4941099 0.4807669 0.4532183 -9999 -9999 -9999 -9999 -9999 -9999 -9999 -9999 -9999 -9999 -9999 -9999 -9999 -9999 -9999 -9999 -9999 -9999 -9999 -9999 -9999 -9999 -9999 -9999 -9999 -9999 -9999 -9999 -9999 -9999 -9999 -9999 -9999 -9999 -9999 -9999 -9999 -9999 -9999 -9999 -9999 -9999 -9999 -9999 -9999 -9999 -9999 -9999 -9999 -9999
-9999 -9999 -9999 -9999 -9999 -9999 -9999 -9999 -9999 -9999 -9999 -9999 -9999 -9999 -9999 -9999 -9999 -9999 -9999 -9999 -9999 -9999 -9999 -9999 -9999 -9999 -9999 -9999 -9999 -9999 -9999 -9999 -9999 -9999 -9999 -9999 -9999 -9999 -9999 -9999 -9999 -9999 -9999 -9999 -9999 -9999 -9999 -9999 -9999 -9999 -9999 -9999 -9999 -9999 -9999 -9999 -9999 -9999 -9999 -9999 -9999 -9999 -9999 -9999 -9999 -9999 -9999 -9999 0.3976678 1.554973 1.64154 1.727805 1.814203 1.900592 1.986859 2.073005 2.159031 2.244936 2.330721 2.416387 2.5 2.5 2.5 2.5 2.5 2.5 2.5 2.5 2.5 2.5 2.5 2.5 2.5 2.5 2.5 2.5 2.5 2.5 2.5 2.5 2.5 2.5 2.5 2.5 2.5 2.5 2.5 2.5 2.5 2.5 2.5 2.5 2.5 2.5 2.5 2.5 2.5 2.5 2.5 2.5 2.5 2.5 2.5 2.5 2.5 2.5 2.5 2.5 2.5 2.5 2.5 2.5 2.5 2.5 2.5 2.5 2.5 2.5 2.5 2.5 2.5 2.5 2.5 2.5 2.5 2.5 2.5 2.5 2.5 2.5 2.5 2.5 2.5 2.430266 2.11862 1.813476 1.505847 1.20439 0.8920066 0.5796232 0.2526435 -0.07821625 -0.4090761 -0.7456628 -1.108603 -1.212423 -1.368376 -1.52433 -1.680283 -1.836236 -1.99219 -2.148143 -2.379238 -2.6047 -2.717095 -2.666575 -2.629254 -2.518128 -2.555119 -2.46629 -2.477654 -2.472158 -2.593459 -2.726482 -2.859504 -2.8815 -2.880878 -2.800002 -2.757442 -2.765141 -2.684992 -2.653814 -2.653912 -2.586486 -2.553217 -2.45946 -2.433959 -2.332433 -2.314462 -2.205405 -2.138681 -2.078378 -2.046895 -1.951351 -1.942598 -1.845097 -1.824324 -1.824324 -1.824324 -1.824324 -1.815454 -1.777573 -1.745566 -1.744784 -1.722262 -1.639142 -1.584548 -1.528242 -1.388013 -1.309655 -1.227009 -1.166761 -1.016964 -0.8998986 -0.8446431 -0.7685332 -0.5854873 -1.014506 -1.077648 -0.6871012 -0.5715165 -0.5296017 -0.4582861 -0.3680718 -0.3077197 -0.2064884 -0.1841523 -0.132765 -0.07888413 -0.04747984 0.09181066 0.1195856 0.2087301 0.225471 0.2167648 0.2053428 0.2213164 0.2623192 0.2833712 0.30727 0.3505933 0.3968812 0.4053342 0.3803193 0.3533391 0.3582808 0.3681948 0.4308761 0.4400597 0.4459789 0.4475734 0.4733116 0.4850369 0.4798876 0.4760859 0.4292698 0.4836193 0.469226 0.4683929 -9999 -9999 -9999 -9999 -9999 -9999 -9999 -9999 -9999 -9999 -9999 -9999 -9999 -9999 -9999 -9999 -9999 -9999 -9999 -9999 -9999 -9999 -9999 -9999 -9999 -9999 -9999 -9999 -9999 -9999 -9999 -9999 -9999 -9999 -9999 -9999 -9999 -9999 -9999 -9999 -9999 -9999 -9999 -9999 -9999 -9999 -9999 -9999
-9999 -9999 -9999 -9999 -9999 -9999 -9999 -9999 -9999 -9999 -9999 -9999 -9999 -9999 -9999 -9999 -9999 -9999 -9999 -9999 -9999 -9999 -9999 -9999 -9999 -9999 -9999 -9999 -9999 -9999 -9999 -9999 -9999 -9999 -9999 -9999 -9999 -9999 -9999 -9999 -9999 -9999 -9999 -9999 -9999 -9999 -9999 -9999 -9999 -9999 -9999 -9999 -9999 -9999 -9999 -9999 -9999 -9999 -9999 -9999 -9999 -9999 -9999 -9999 -9999 -9999 -9999 -9999 1.277416 1.365121 1.451946 1.53865 1.625232 1.711692 1.798031 1.884012 1.969976 2.056014 2.141931 2.227728 2.313406 2.398963 2.484402 2.5 2.5 2.5 2.5 2.5 2.5 2.5 2.5 2.5 2.5 2.5 2.5 2.5 2.5 2.5 2.5 2.5 2.5 2.5 2.5 2.5 2.5 2.5 2.5 2.5 2.5 2.5 2.5 2.5 2.5 2.5 2.5 2.5 2.5 2.5 2.5 2.5 2.5 2.5 2.5 2.5 2.5 2.5 2.5 2.5 2.5 2.5 2.5 2.5 2.5 2.5 2.5 2.5 2.5 2.5 2.5 2.5 2.5 2.5 2.5 2.5 2.5 2.5 2.5 2.5 2.5 2.5 2.5 2.5 2.5 2.287516 1.987523 1.673266 1.369482 1.069188 0.7656252 0.467862 0.1554785 -0.1569049 -0.4692883 -0.7816719 -1.103323 -1.310741 -1.513025 -1.684147 -1.840101 -1.996054 -2.152007 -2.30796 -2.462136 -2.749171 -2.608062 -2.503724 -2.458503 -2.378599 -2.373201 -2.29531 -2.292775 -2.233696 -2.344594 -2.477617 -2.61064 -2.554609 -2.547051 -2.48063 -2.460225 -2.46593 -2.385781 -2.404334 -2.38277 -2.387901 -2.370736 -2.355346 -2.337905 -2.329842 -2.282884 -2.18319 -2.078378 -2.078378 -1.982378 -1.951351 -1.890304 -1.824324 -1.824324 -1.824324 -1.824324 -1.824324 -1.824324 -1.816183 -1.794653 -1.770548 -1.710015 -1.653635 -1.604688 -1.492601 -1.414538 -1.343664 -1.281722 -1.145374 -0.9854032 -0.9333534 -0.8537437 -0.6926619 -0.9383835 -1.296309 -0.7671543 -0.6540371 -0.6015663 -0.5439658 -0.4462241 -0.3631806 -0.2723737 -0.2360762 -0.2022643 -0.1384374 -0.09382062 0.04442547 0.07905257 0.1704731 0.1910983 0.1877289 0.1714836 0.180737 0.2292513 0.2501253 0.2740242 0.3194865 0.3585822 0.3912838 0.4055462 0.3298676 0.329419 0.339333 0.3956157 0.4216228 0.4390546 0.4295705 0.4531758 0.477393 0.4656654 0.4698427 0.4441572 0.3998871 0.4049392 0.4012211 0.4750941 0.4383039 0.4606213 -9999 -9999 -9999 -9999 -9999 -9999 -9999 -9999 -9999 -9999 -9999 -9999 -9999 -9999 -9999 -9999 -9999 -9999 -9999 -9999 -9999 -9999 -9999 -9999 -9999 -9999 -9999 -9999 -9999 -9999 -9999 -9999 -9999 -9999 -9999 -9999 -9999 -9999 -9999 -9999 -9999 -9999 -9999 -9999 -9999 -9999
-9999 -9999 -9999 -9999 -9999 -9999 -9999 -9999 -9999 -9999 -9999 -9999 -9999 -9999 -9999 -9999 -9999 -9999 -9999 -9999 -9999 -9999 -9999 -9999 -9999 -9999 -9999 -9999 -9999 -9999 -9999 -9999 -9999 -9999 -9999 -9999 -9999 -9999 -9999 -9999 -9999 -9999 -9999 -9999 -9999 -9999 -9999 -9999 -9999 -9999 -9999 -9999 -9999 -9999 -9999 -9999 -9999 -9999 -9999 -9999 -9999 -9999 -9999 -9999 -9999 -9999 -9999 0.6888199 1.088979 1.175694 1.262286 1.349064 1.435779 1.522373 1.608845 1.695195 1.781425 1.867535 1.953523 2.039347 2.124879 2.210569 2.296139 2.381589 2.46692 2.5 2.5 2.5 2.5 2.5 2.5 2.5 2.5 2.5 2.5 2.5 2.5 2.5 2.5 2.5 2.5 2.5 2.5 2.5 2.5 2.5 2.5 2.5 2.5 2.5 2.5 2.5 2.5 2.5 2.5 2.5 2.5 2.5 2.5 2.5 2.5 2.5 2.5 2.5 2.5 2.5 2.5 2.5 2.5 2.5 2.5 2.5 2.5 2.5 2.5 2.5 2.5 2.5 2.5 2.5 2.5 2.5 2.5 2.5 2.5 2.5 2.5 2.5 2.5 2.5 2.5 2.5 2.437515 2.126979 1.820826 1.511087 1.227187 0.9162658 0.6203444 0.3248989 0.0254032 -0.2686661 -0.5810496 -0.8934327 -1.150763 -1.361122 -1.558659 -1.749227 -1.954411 -2.139043 -2.311824 -2.467778 -2.607156 -2.567867 -2.533233 -2.392124 -2.290352 -2.25043 -2.127943 -2.157911 -2.080933 -2.054081 -2.095729 -2.228752 -2.323785 -2.238408 -2.213224 -2.161258 -2.163007 -2.166718 -2.109852 -2.156859 -2.12098 -2.17066 -2.136172 -2.172669 -2.123185 -2.177274 -2.140904 -2.093613 -2.078378 -2.027286 -1.951351 -1.935525 -1.824324 -1.824324 -1.824324 -1.824324 -1.824324 -1.824324 -1.824324 -1.824324 -1.816411 -1.780888 -1.7343 -1.681134 -1.599248 -1.519466 -1.46032 -1.399412 -1.290576 -1.131331 -1.041639 -0.942454 -0.7998366 -0.8622611 -1.509207 -0.9077432 -0.74626 -0.6735308 -0.6296453 -0.5197846 -0.4214002 -0.3461712 -0.288 -0.2717636 -0.1933766 -0.1401614 -0.03228772 0.03851956 0.1322162 0.156416 0.158693 0.1376244 0.1401576 0.1961833 0.2168795 0.2407783 0.2883797 0.3202831 0.3772334 0.37878 0.3063962 0.3011744 0.3104712 0.3405028 0.4057289 0.4181358 0.4115675 0.4288031 0.4504881 0.46533 0.4556204 0.4594934 0.3930117 0.3744859 0.4022282 0.3697974 0.3744786 0.4140639 0.4613792 0.4250611 -9999 -9999 -9999 -9999 -9999 -9999 -9999 -9999 -9999 -9999 -9999 -9999 -9999 -9999 -9999 -9999 -9999 -9999 -9999 -9999 -9999 -9999 -9999 -9999 -9999 -9999 -9999 -9999 -9999 -9999 -9999 -9999 -9999 -9999 -9999 -9999 -9999 -9999 -9999 -9999 -9999 -9999 -9999 -9999 -9999
-9999 -9999 -9999 -9999 -9999 -9999 -9999 -9999 -9999 -9999 -9999 -9999 -9999 -9999 -9999 -9999 -9999 -9999 -9999 -9999 -9999 -9999 -9999 -9999 -9999 -9999 -9999 -9999 -9999 -9999 -9999 -9999 -9999 -9999 -9999 -9999 -9999 -9999 -9999 -9999 -9999 -9999 -9999 -9999 -9999 -9999 -9999 -9999 -9999 -9999 -9999 -9999 -9999 -9999 -9999 -9999 -9999 -9999 -9999 -9999 -9999 -9999 -9999 -9999 -9999 -9999 -1.109961 0.811242 0.8993279 0.9864808 1.073511 1.16042 1.247199 1.333559 1.419798 1.506141 1.592503 1.678745 1.764865 1.850866 1.936746 2.022507 2.108148 2.19367 2.278919 2.364263 2.449488 2.5 2.5 2.5 2.5 2.5 2.5 2.5 2.5 2.5 2.5 2.5 2.5 2.5 2.5 2.5 2.5 2.5 2.5 2.5 2.5 2.5 2.5 2.5 2.5 2.5 2.5 2.5 2.5 2.5 2.5 2.5 2.5 2.5 2.5 2.5 2.5 2.5 2.5 2.5 2.5 2.5 2.5 2.5 2.5 2.5 2.5 2.5 2.5 2.5 2.5 2.5 2.5 2.5 2.5 2.5 2.5 2.5 2.5 2.5 2.5 2.5 2.5 2.5 2.5 2.5 2.264985 1.954588 1.647246 1.349571 1.03939 0.7521363 0.4651326 0.1592659 -0.1287934 -0.4193897 -0.714819 -1.007843 -1.219992 -1.397362 -1.610508 -1.83427 -2.035612 -2.208188 -2.395131 -2.580429 -2.588856 -2.447237 -2.334332 -2.312032 -2.176186 -2.075557 -2.042357 -1.980944 -1.90319 -1.879928 -1.847681 -1.979887 -1.996694 -1.922207 -1.879398 -1.841887 -1.86579 -1.867506 -1.864113 -1.914247 -1.912603 -1.971947 -1.953306 -1.965425 -1.97282 -2.013633 -1.954341 -2.165682 -2.111745 -1.964796 -1.951351 -1.868345 -1.824324 -1.824324 -1.824324 -1.824324 -1.824324 -1.824324 -1.824324 -1.824324 -1.824324 -1.815251 -1.759133 -1.705895 -1.636285 -1.576975 -1.517179 -1.435777 -1.283712 -1.195916 -1.092535 -0.933334 -0.7861388 -1.518367 -1.126404 -0.8384829 -0.7454954 -0.7134789 -0.5928057 -0.4995525 -0.4199686 -0.3399239 -0.3332193 -0.2481361 -0.1982187 -0.1141938 -0.002013443 0.07758006 0.1217336 0.128741 0.1037652 0.09957822 0.1631154 0.1836337 0.2075325 0.2558771 0.2876532 0.3509322 0.3520138 0.3381769 0.2791482 0.2816094 0.2915233 0.3823985 0.3972169 0.4017442 0.3951591 0.4303524 0.4576861 0.4413982 0.4482562 0.4275647 0.363629 0.3717353 0.3779539 0.3572661 0.382719 0.3658326 0.3720163 0.4362778 0.4455574 0.4402358 -9999 -9999 -9999 -9999 -9999 -9999 -9999 -9999 -9999 -9999 -9999 -9999 -9999 -9999 -9999 -9999 -9999 -9999 -9999 -9999 -9999 -9999 -9999 -9999 -9999 -9999 -9999 -9999 -9999 -9999 -9999 -9999 -9999 -9999 -9999 -9999 -9999 -9999 -9999 -9999 -9999 -9999 -9999
-9999 -9999 -9999 -9999 -9999 -9999 -9999 -9999 -9999 -9999 -9999 -9999 -9999 -9999 -9999 -9999 -9999 -9999 -9999 -9999 -9999 -9999 -9999 -9999 -9999 -9999 -9999 -9999 -9999 -9999 -9999 -9999 -9999 -9999 -9999 -9999 -9999 -9999 -9999 -9999 -9999 -9999 -9999 -9999 -9999 -9999 -9999 -9999 -9999 -9999 -9999 -9999 -9999 -9999 -9999 -9999 -9999 -9999 -9999 -9999 -9999 -9999 -9999 -9999 -9999 -9999 0.5335049 0.6228052 0.7098473 0.7967672 0.8839257 0.9709671 1.057886 1.144684 1.23136 1.317914 1.404348 1.490541 1.57643 1.66234 1.748352 1.834244 1.920016 2.005669 2.091203 2.176618 2.261914 2.347091 2.43215 2.5 2.5 2.5 2.5 2.5 2.5 2.5 2.5 2.5 2.5 2.5 2.5 2.5 2.5 2.5 2.5 2.5 2.5 2.5 2.5 2.5 2.5 2.5 2.5 2.5 2.5 2.5 2.5 2.5 2.5 2.5 2.5 2.5 2.5 2.5 2.5 2.5 2.5 2.5 2.5 2.5 2.5 2.5 2.5 2.5 2.5 2.5 2.5 2.5 2.5 2.5 2.5 2.5 2.5 2.5 2.5 2.5 2.5 2.5 2.5 2.5 2.5 2.386051 2.073468 1.77835 1.463346 1.167513 0.8579117 0.5726995 0.26991 -0.008285165 -0.2969219 -0.5941868 -0.8779311 -1.133976 -1.305133 -1.476289 -1.657191 -1.836244 -2.043632 -2.287565 -2.512563 -2.54011 -2.452833 -2.369604 -2.254842 -2.120909 -2.078497 -1.962809 -1.86065 -1.799532 -1.75919 -1.695049 -1.618541 -1.731022 -1.676121 -1.606006 -1.562018 -1.543851 -1.569676 -1.568294 -1.615666 -1.65402 -1.699267 -1.755057 -1.775672 -1.762985 -1.820252 -1.818756 -1.902141 -2.237336 -2.110954 -2.070079 -1.943133 -1.824324 -1.824324 -1.824324 -1.824324 -1.824324 -1.824324 -1.824324 -1.824324 -1.824324 -1.824324 -1.824324 -1.812542 -1.753103 -1.693735 -1.634946 -1.577188 -1.43464 -1.350194 -1.256398 -1.132662 -0.895992 -1.470782 -1.345065 -0.9307058 -0.8174599 -0.7792478 -0.6784853 -0.5777048 -0.4937661 -0.3930788 -0.3875457 -0.3166186 -0.257772 -0.1961 -0.04629395 0.02284748 0.08705129 0.09461928 0.06990597 0.06286205 0.1300474 0.1510748 0.1742866 0.2220396 0.2565465 0.3126331 0.3335562 0.3631282 0.2556767 0.2527476 0.2626615 0.3318039 0.3805816 0.3962119 0.3771562 0.4102166 0.4394133 0.4456231 0.4313532 0.4429009 0.3567536 0.3412821 0.3717692 0.344869 0.3593829 0.3589413 0.3364102 0.3207162 0.3576542 0.390201 0.4459075 0.4246043 0.4158592 -9999 -9999 -9999 -9999 -9999 -9999 -9999 -9999 -9999 -9999 -9999 -9999 -9999 -9999 -9999 -9999 -9999 -9999 -9999 -9999 -9999 -9999 -9999 -9999 -9999 -9999 -9999 -9999 -9999 -9999 -9999 -9999 -9999 -9999 -9999 -9999 -9999 -9999 -9999 -9999 -9999
-9999 -9999 -9999 -9999 -9999 -9999 -9999 -9999 -9999 -9999 -9999 -9999 -9999 -9999 -9999 -9999 -9999 -9999 -9999 -9999 -9999 -9999 -9999 -9999 -9999 -9999 -9999 -9999 -9999 -9999 -9999 -9999 -9999 -9999 -9999 -9999 -9999 -9999 -9999 -9999 -9999 -9999 -9999 -9999 -9999 -9999 -9999 -9999 -9999 -9999 -9999 -9999 -9999 -9999 -9999 -9999 -9999 -9999 -9999 -9999 -9999 -9999 -9999 -9999 -9999 -0.8188093 0.3450681 0.433535 0.5210152 0.6083726 0.695525 0.7823329 0.869019 0.9555838 1.042305 1.128992 1.215558 1.302002 1.388326 1.474529 1.560613 1.646576 1.732189 1.817668 1.903333 1.988878 2.074305 2.159612 2.244802 2.329873 2.414826 2.499662 2.5 2.5 2.5 2.5 2.5 2.5 2.5 2.5 2.5 2.5 2.5 2.5 2.5 2.5 2.5 2.5 2.5 2.5 2.5 2.5 2.5 2.5 2.5 2.5 2.5 2.5 2.5 2.5 2.5 2.5 2.5 2.5 2.5 2.5 2.5 2.5 2.5 2.5 2.5 2.5 2.5 2.5 2.5 2.5 2.5 2.5 2.5 2.5 2.5 2.5 2.5 2.5 2.5 2.5 2.5 2.5 2.5 2.5 2.477999 2.174303 1.872079 1.566022 1.273017 0.9767113 0.672172 0.3772435 0.08522049 -0.2087364 -0.4890405 -0.7703397 -1.058976 -1.229418 -1.383222 -1.56845 -1.737756 -1.908656 -2.088449 -2.272268 -2.476756 -2.411402 -2.332513 -2.253623 -2.150352 -2.062447 -1.922427 -1.844963 -1.749437 -1.645741 -1.588687 -1.510459 -1.444837 -1.477302 -1.359921 -1.289806 -1.244783 -1.245997 -1.273656 -1.313673 -1.370814 -1.415163 -1.488397 -1.530936 -1.592945 -1.614979 -1.673874 -1.634516 -2.351565 -2.257113 -2.253836 -2.12984 -1.950483 -1.861756 -1.824324 -1.824324 -1.824324 -1.824324 -1.824324 -1.824324 -1.824324 -1.824324 -1.824324 -1.824324 -1.824324 -1.811502 -1.752713 -1.695008 -1.585567 -1.504748 -1.42026 -1.323509 -1.102149 -1.522245 -1.504908 -1.0365 -0.8976418 -0.8512124 -0.7641649 -0.6558571 -0.5675636 -0.4584201 -0.4395202 -0.3861179 -0.3173252 -0.2738564 -0.09367914 -0.03188509 0.05236895 0.06049761 0.03900333 0.02900285 0.09697946 0.1187105 0.1410408 0.1882021 0.2254397 0.2743341 0.3195058 0.3363619 0.2322053 0.226988 0.2337998 0.276691 0.3646877 0.375293 0.3591532 0.3764598 0.4075289 0.4379792 0.417131 0.4435183 0.4031538 0.3273709 0.3385314 0.3530254 0.3236447 0.3493812 0.3473208 0.3076744 0.3129537 0.310003 0.3150698 0.3647358 0.3847449 0.4365274 0.396904 -9999 -9999 -9999 -9999 -9999 -9999 -9999 -9999 -9999 -9999 -9999 -9999 -9999 -9999 -9999 -9999 -9999 -9999 -9999 -9999 -9999 -9999 -9999 -9999 -9999 -9999 -9999 -9999 -9999 -9999 -9999 -9999 -9999 -9999 -9999 -9999 -9999 -9999 -9999 -9999
-9999 -9999 -9999 -9999 -9999 -9999 -9999 -9999 -9999 -9999 -9999 -9999 -9999 -9999 -9999 -9999 -9999 -9999 -9999 -9999 -9999 -9999 -9999 -9999 -9999 -9999 -9999 -9999 -9999 -9999 -9999 -9999 -9999 -9999 -9999 -9999 -9999 -9999 -9999 -9999 -9999 -9999 -9999 -9999 -9999 -9999 -9999 -9999 -9999 -9999 -9999 -9999 -9999 -9999 -9999 -9999 -9999 -9999 -9999 -9999 -9999 -9999 -9999 -9999 -9999 0.06733099 0.1566313 0.2440012 0.3312964 0.418787 0.5061548 0.5934001 0.6805231 0.7675241 0.8544032 0.9409676 1.0273 1.113513 1.1998 1.286135 1.372349 1.458444 1.544418 1.630273 1.716008 1.801624 1.887082 1.972158 2.057453 2.142654 2.227737 2.312702 2.39755 2.48228 2.5 2.5 2.5 2.5 2.5 2.5 2.5 2.5 2.5 2.5 2.5 2.5 2.5 2.5 2.5 2.5 2.5 2.5 2.5 2.5 2.5 2.5 2.5 2.5 2.5 2.5 2.5 2.5 2.5 2.5 2.5 2.5 2.5 2.5 2.5 2.5 2.5 2.5 2.5 2.5 2.5 2.5 2.5 2.5 2.5 2.5 2.5 2.5 2.5 2.5 2.5 2.5 2.5 2.5 2.5 2.5 2.257945 1.956427 1.657542 1.353643 1.058576 0.7612209 0.4792376 0.1750725 -0.1115595 -0.4064389 -0.6874708 -0.9712667 -1.172655 -1.333867 -1.491617 -1.635488 -1.794359 -1.999882 -2.172341 -2.341586 -2.420383 -2.309677 -2.203805 -2.124915 -2.046026 -1.950694 -1.84787 -1.723944 -1.617311 -1.536066 -1.430833 -1.360469 -1.271133 -1.148805 -1.011633 -0.9270713 -0.8766305 -0.8211449 -0.8180336 -0.9042099 -1.001344 -1.168275 -1.289706 -1.357386 -1.402784 -1.464178 -1.496608 -2.096705 -2.403271 -2.432608 -2.3242 -2.130916 -2.03952 -2.006593 -1.856281 -1.824324 -1.824324 -1.824324 -1.824324 -1.824324 -1.824324 -1.824324 -1.824324 -1.824324 -1.824324 -1.824324 -1.812828 -1.736494 -1.659715 -1.584123 -1.48919 -1.308306 -1.573709 -1.638655 -1.207386 -1.042799 -0.9341742 -0.8498446 -0.7340094 -0.6310333 -0.5322176 -0.4914441 -0.4556173 -0.3768785 -0.3201972 -0.1670883 -0.08661766 0.01470714 0.02628572 0.009967444 -0.004856353 0.06097592 0.08634631 0.107795 0.1543646 0.1943329 0.236035 0.3049831 0.3095957 0.2960345 0.2049574 0.204938 0.2215781 0.3212272 0.3554343 0.3588306 0.3427448 0.3873932 0.4303353 0.4105683 0.407084 0.4263084 0.3204955 0.3080782 0.34369 0.3199405 0.3257615 0.3256034 0.3178984 0.299006 0.3061401 0.3084912 0.3269427 0.3088403 0.314329 0.367032 0.3708403 0.421465 0.4120786 -9999 -9999 -9999 -9999 -9999 -9999 -9999 -9999 -9999 -9999 -9999 -9999 -9999 -9999 -9999 -9999 -9999 -9999 -9999 -9999 -9999 -9999 -9999 -9999 -9999 -9999 -9999 -9999 -9999 -9999 -9999 -9999 -9999 -9999 -9999 -9999 -9999 -9999
-9999 -9999 -9999 -9999 -9999 -9999 -9999 -9999 -9999 -9999 -9999 -9999 -9999 -9999 -9999 -9999 -9999 -9999 -9999 -9999 -9999 -9999 -9999 -9999 -9999 -9999 -9999 -9999 -9999 -9999 -9999 -9999 -9999 -9999 -9999 -9999 -9999 -9999 -9999 -9999 -9999 -9999 -9999 -9999 -9999 -9999 -9999 -9999 -9999 -9999 -9999 -9999 -9999 -9999 -9999 -9999 -9999 -9999 -9999 -9999 -9999 -9999 -9999 -9999 -0.5276572 -0.1211058 -0.03225801 0.05554963 0.1430762 0.2303329 0.3174672 0.4044792 0.4913694 0.5784696 0.665481 0.7523708 0.8391391 0.9257863 1.012312 1.098717 1.184699 1.270561 1.356417 1.442402 1.528268 1.614015 1.699643 1.785151 1.870541 1.955813 2.040967 2.12585 2.21072 2.295579 2.380073 2.464818 2.5 2.5 2.5 2.5 2.5 2.5 2.5 2.5 2.5 2.5 2.5 2.5 2.5 2.5 2.5 2.5 2.5 2.5 2.5 2.5 2.5 2.5 2.5 2.5 2.5 2.5 2.5 2.5 2.5 2.5 2.5 2.5 2.5 2.5 2.5 2.5 2.5 2.5 2.5 2.5 2.5 2.5 2.5 2.5 2.5 2.5 2.5 2.5 2.5 2.5 2.5 2.5 2.5 2.302763 2.017172 1.723439 1.434855 1.135165 0.8368824 0.5506828 0.2490204 -0.03053969 -0.3145417 -0.6102439 -0.8952912 -1.13757 -1.2802 -1.418051 -1.57014 -1.750356 -1.900769 -2.041557 -2.225791 -2.431315 -2.386729 -2.261729 -2.141512 -2.030806 -1.921897 -1.838428 -1.759538 -1.639765 -1.530392 -1.418828 -1.32172 -1.227807 -1.025089 -0.8321344 -0.6787556 -0.5534222 -0.4811647 -0.4334685 -0.352664 -0.4120626 -0.4555901 -0.6101364 -0.8398061 -1.082031 -1.254779 -1.317916 -1.690385 -2.537447 -2.55701 -2.52056 -2.317623 -2.248029 -2.26279 -2.0068 -1.930228 -1.84986 -1.824324 -1.824324 -1.824324 -1.824324 -1.824324 -1.824324 -1.824324 -1.824324 -1.824324 -1.824324 -1.824324 -1.814683 -1.740256 -1.654871 -1.514462 -1.625172 -1.772402 -1.363816 -1.218951 -1.11641 -1.002845 -0.8174744 -0.7091855 -0.6060151 -0.5433679 -0.5251166 -0.4331377 -0.3771066 -0.2489945 -0.1413502 -0.0235498 -0.008396621 -0.01906845 -0.03871556 0.02039652 0.05398208 0.07454913 0.1205271 0.1632261 0.197736 0.266684 0.2828295 0.3207101 0.1814859 0.1760762 0.1859901 0.267992 0.3395404 0.3533692 0.3247419 0.3590263 0.3865791 0.4182723 0.3928638 0.4387803 0.3493145 0.2909882 0.3053275 0.3280969 0.2900233 0.3160434 0.3215564 0.2886446 0.2912435 0.2954715 0.3147303 0.2972267 0.2991235 0.3304439 0.3080546 0.3135883 0.3671806 0.3838612 0.4090341 -9999 -9999 -9999 -9999 -9999 -9999 -9999 -9999 -9999 -9999 -9999 -9999 -9999 -9999 -9999 -9999 -9999 -9999 -9999 -9999 -9999 -9999 -9999 -9999 -9999 -9999 -9999 -9999 -9999 -9999 -9999 -9999 -9999 -9999 -9999 -9999 -9999
-9999 -9999 -9999 -9999 -9999 -9999 -9999 -9999 -9999 -9999 -9999 -9999 -9999 -9999 -9999 -9999 -9999 -9999 -9999 -9999 -9999 -9999 -9999 -9999 -9999 -9999 -9999 -9999 -9999 -9999 -9999 -9999 -9999 -9999 -9999 -9999 -9999 -9999 -9999 -9999 -9999 -9999 -9999 -9999 -9999 -9999 -9999 -9999 -9999 -9999 -9999 -9999 -9999 -9999 -9999 -9999 -9999 -9999 -9999 -9999 -9999 -9999 -9999 -9999 -0.3988429 -0.3095426 -0.221845 -0.1341692 -0.04635168 0.0413426 0.1289139 0.2163624 0.3036884 0.3906246 0.4774028 0.5640597 0.6505956 0.7372599 0.8239176 0.9104545 0.9968708 1.083167 1.169342 1.255398 1.341222 1.426737 1.512164 1.597802 1.683322 1.768724 1.854007 1.939172 2.024219 2.108337 2.192837 2.277642 2.362419 2.447301 2.5 2.5 2.5 2.5 2.5 2.5 2.5 2.5 2.5 2.5 2.5 2.5 2.5 2.5 2.5 2.5 2.5 2.5 2.5 2.5 2.5 2.5 2.5 2.5 2.5 2.5 2.5 2.5 2.5 2.5 2.5 2.5 2.5 2.5 2.5 2.5 2.5 2.5 2.5 2.5 2.5 2.5 2.5 2.5 2.5 2.5 2.5 2.5 2.5 2.5 2.324443 2.042146 1.762132 1.480404 1.188933 0.9132836 0.6106654 0.3201219 0.03099337 -0.26318 -0.5411333 -0.8243191 -1.101259 -1.233796 -1.383853 -1.530384 -1.667122 -1.804267 -1.983475 -2.166844 -2.308084 -2.404 -2.310377 -2.216755 -2.11001 -1.986857 -1.862641 -1.751939 -1.643566 -1.551941 -1.449901 -1.328836 -1.224638 -0.9753675 -0.7726496 -0.5699317 -0.3598608 -0.208706 -0.09691954 -0.03800264 0.08108009 0.07137077 -0.01057932 -0.0519976 -0.2812885 -0.5157461 -0.7285744 -0.9873133 -2.29127 -2.681411 -2.716921 -2.50433 -2.476341 -2.518987 -2.15732 -2.060387 -1.969159 -1.999176 -1.868029 -1.824324 -1.824324 -1.824324 -1.824324 -1.824324 -1.824324 -1.824324 -1.824324 -1.824324 -1.824324 -1.824324 -1.820552 -1.720619 -1.676635 -1.794611 -1.520246 -1.395102 -1.298647 -1.206872 -1.022713 -0.8629937 -0.6798126 -0.5952917 -0.5908226 -0.5004722 -0.4366598 -0.3309006 -0.1893586 -0.07359108 -0.04307896 -0.04810434 -0.07257476 -0.02018288 0.02161784 0.0413033 0.08668958 0.1321194 0.1624997 0.228385 0.2617782 0.2939439 0.1880122 0.1528015 0.1571284 0.2128792 0.3078169 0.3324504 0.3074753 0.3241165 0.3645697 0.4106284 0.3786415 0.382809 0.4097159 0.2842374 0.2748743 0.3156108 0.2913008 0.2921401 0.2922656 0.2993866 0.2772957 0.2916087 0.2838481 0.3008671 0.2575385 0.2920393 0.306552 0.3389499 0.329514 0.3072688 0.3116559 0.3469738 0.4081956 0.377682 -9999 -9999 -9999 -9999 -9999 -9999 -9999 -9999 -9999 -9999 -9999 -9999 -9999 -9999 -9999 -9999 -9999 -9999 -9999 -9999 -9999 -9999 -9999 -9999 -9999 -9999 -9999 -9999 -9999 -9999 -9999 -9999 -9999 -9999 -9999
-9999 -9999 -9999 -9999 -9999 -9999 -9999 -9999 -9999 -9999 -9999 -9999 -9999 -9999 -9999 -9999 -9999 -9999 -9999 -9999 -9999 -9999 -9999 -9999 -9999 -9999 -9999 -9999 -9999 -9999 -9999 -9999 -9999 -9999 -9999 -9999 -9999 -9999 -9999 -9999 -9999 -9999 -9999 -9999 -9999 -9999 -9999 -9999 -9999 -9999 -9999 -9999 -9999 -9999 -9999 -9999 -9999 -9999 -9999 -9999 -9999 -9999 -9999 -0.6765801 -0.5872797 -0.498051 -0.4101493 -0.3224427 -0.2348592 -0.1473986 -0.06006058 0.02717539 0.1146339 0.20197 0.289184 0.376276 0.4632464 0.5500209 0.6364458 0.7227502 0.8089343 0.8951655 0.9814721 1.067659 1.153725 1.239673 1.3255 1.411209 1.496799 1.582048 1.6671 1.752342 1.837518 1.921377 2.00571 2.090194 2.17483 2.25962 2.344562 2.429658 2.5 2.5 2.5 2.5 2.5 2.5 2.5 2.5 2.5 2.5 2.5 2.5 2.5 2.5 2.5 2.5 2.5 2.5 2.5 2.5 2.5 2.5 2.5 2.5 2.5 2.5 2.5 2.5 2.5 2.5 2.5 2.5 2.5 2.5 2.5 2.5 2.5 2.5 2.5 2.5 2.5 2.5 2.5 2.5 2.5 2.5 2.5 2.290336 2.040403 1.782138 1.499888 1.2215 0.9436375 0.6544271 0.3805014 0.08616626 -0.1984611 -0.488696 -0.7753807 -1.053334 -1.205838 -1.337752 -1.465667 -1.598204 -1.774113 -1.923199 -2.054044 -2.198792 -2.396811 -2.418573 -2.280183 -2.141794 -2.022407 -1.926914 -1.8269 -1.709368 -1.586986 -1.473607 -1.365233 -1.260038 -1.042626 -0.7841206 -0.5256153 -0.3174924 -0.1147744 0.1124128 0.2613437 0.3574632 0.4051593 0.5496687 0.4603857 0.5049756 0.2772291 0.1294308 -0.1253226 -0.7223761 -2.175974 -2.913281 -2.696064 -2.704653 -2.775184 -2.311783 -2.190547 -2.088458 -2.243753 -2.080931 -1.969472 -1.841367 -1.824324 -1.824324 -1.824324 -1.824324 -1.824324 -1.824324 -1.824324 -1.824324 -1.824324 -1.824324 -1.824324 -1.824324 -1.814913 -1.676676 -1.571254 -1.480883 -1.389618 -1.231121 -1.090435 -0.9287348 -0.7383357 -0.6429642 -0.5699716 -0.4962131 -0.4128067 -0.2317837 -0.1283237 -0.0777613 -0.07714023 -0.106434 -0.06076228 -0.0107464 0.008057459 0.05285208 0.1010126 0.1313929 0.190086 0.2477279 0.2671776 0.2538922 0.1307665 0.1282666 0.1577663 0.2592931 0.3143932 0.3159169 0.2903305 0.3415928 0.3814714 0.3920308 0.3685966 0.425052 0.2954753 0.254298 0.2723084 0.3031685 0.2564019 0.2827056 0.293808 0.2699641 0.2695332 0.2809401 0.2900873 0.2715162 0.235942 0.2636229 0.2850355 0.3019612 0.2420274 0.2357511 0.3228607 0.3064831 0.3084188 0.3428298 0.3979606 0.3839215 -9999 -9999 -9999 -9999 -9999 -9999 -9999 -9999 -9999 -9999 -9999 -9999 -9999 -9999 -9999 -9999 -9999 -9999 -9999 -9999 -9999 -9999 -9999 -9999 -9999 -9999 -9999 -9999 -9999 -9999 -9999 -9999 -9999
-9999 -9999 -9999 -9999 -9999 -9999 -9999 -9999 -9999 -9999 -9999 -9999 -9999 -9999 -9999 -9999 -9999 -9999 -9999 -9999 -9999 -9999 -9999 -9999 -9999 -9999 -9999 -9999 -9999 -9999 -9999 -9999 -9999 -9999 -9999 -9999 -9999 -9999 -9999 -9999 -9999 -9999 -9999 -9999 -9999 -9999 -9999 -9999 -9999 -9999 -9999 -9999 -9999 -9999 -9999 -9999 -9999 -9999 -9999 -9999 -9999 -9999 -9999 -0.8650169 -0.7757165 -0.6876912 -0.5996348 -0.5114904 -0.4234697 -0.3355724 -0.2478368 -0.1604897 -0.07326483 0.01383798 0.100819 0.1876785 0.27472 0.3617006 0.4485599 0.535298 0.6219153 0.7084121 0.7946036 0.8805581 0.9663931 1.052194 1.138152 1.223991 1.30971 1.395311 1.480794 1.566158 1.650058 1.734418 1.818582 1.902897 1.987365 2.071985 2.156758 2.241684 2.326626 2.411717 2.497372 2.5 2.5 2.5 2.5 2.5 2.5 2.5 2.5 2.5 2.5 2.5 2.5 2.5 2.5 2.5 2.5 2.5 2.5 2.5 2.5 2.5 2.5 2.5 2.5 2.5 2.5 2.5 2.5 2.5 2.5 2.5 2.5 2.5 2.5 2.5 2.5 2.5 2.5 2.5 2.5 2.5 2.5 2.489506 2.249574 2.000964 1.754915 1.4995 1.239595 0.9582962 0.6808689 0.4054817 0.1199212 -0.1532077 -0.4365889 -0.7229604 -1.008385 -1.170896 -1.296934 -1.416358 -1.574533 -1.70599 -1.830075 -1.975731 -2.164372 -2.310706 -2.440967 -2.326106 -2.232761 -2.139416 -2.019362 -1.880973 -1.754547 -1.641047 -1.543451 -1.426259 -1.308728 -1.142633 -0.8686873 -0.6021085 -0.343603 -0.08509764 0.1376649 0.3403828 0.5846865 0.7313934 0.8006251 0.9833052 0.9547915 1.050729 0.8357468 0.7395546 0.4847185 -0.5173755 -1.532733 -2.074399 -2.873627 -2.976696 -2.499468 -2.320706 -2.234521 -2.488329 -2.297767 -2.172005 -1.919716 -2.004859 -1.879426 -1.824324 -1.824324 -1.824324 -1.824324 -1.824324 -1.824324 -1.824324 -1.824324 -1.824324 -1.824324 -1.824324 -1.824324 -1.747952 -1.661471 -1.572365 -1.439529 -1.317876 -1.182002 -0.9960365 -0.8820878 -0.7187706 -0.5557663 -0.4947128 -0.3018889 -0.1830562 -0.1124436 -0.1061761 -0.1387581 -0.1013417 -0.04311064 -0.02518838 0.01901458 0.06990582 0.1002861 0.1517869 0.220735 0.2404114 0.278292 0.1072951 0.1005614 0.1093187 0.2041802 0.2944066 0.3105265 0.2723276 0.306683 0.3417463 0.3909215 0.3543743 0.366024 0.3931234 0.2479792 0.2416704 0.2875316 0.2612148 0.2585187 0.2589278 0.2808748 0.2555855 0.2770773 0.259205 0.2708251 0.2418002 0.2288578 0.239731 0.2662743 0.2529056 0.1684069 0.1217872 0.1247696 0.2010894 0.3162075 0.3056973 0.3051817 0.3555771 0.3815508 -9999 -9999 -9999 -9999 -9999 -9999 -9999 -9999 -9999 -9999 -9999 -9999 -9999 -9999 -9999 -9999 -9999 -9999 -9999 -9999 -9999 -9999 -9999 -9999 -9999 -9999 -9999 -9999 -9999 -9999 -9999 -9999
-9999 -9999 -9999 -9999 -9999 -9999 -9999 -9999 -9999 -9999 -9999 -9999 -9999 -9999 -9999 -9999 -9999 -9999 -9999 -9999 -9999 -9999 -9999 -9999 -9999 -9999 -9999 -9999 -9999 -9999 -9999 -9999 -9999 -9999 -9999 -9999 -9999 -9999 -9999 -9999 -9999 -9999 -9999 -9999 -9999 -9999 -9999 -9999 -9999 -9999 -9999 -9999 -9999 -9999 -9999 -9999 -9999 -9999 -9999 -9999 -9999 -9999 -1.142754 -1.053454 -0.9641533 -0.8759955 -0.7879615 -0.7000512 -0.6122643 -0.5246004 -0.4369853 -0.3492017 -0.261541 -0.1740029 -0.08658709 0.0005581535 0.08742699 0.1741746 0.2608013 0.3473073 0.4339142 0.5205418 0.607049 0.6934358 0.7797027 0.8658499 0.9518775 1.037491 1.122979 1.208352 1.293964 1.379457 1.462682 1.546601 1.630672 1.714894 1.799306 1.88415 1.968955 2.053711 2.138331 2.222801 2.307831 2.393425 2.47959 2.5 2.5 2.5 2.5 2.5 2.5 2.5 2.5 2.5 2.5 2.5 2.5 2.5 2.5 2.5 2.5 2.5 2.5 2.5 2.5 2.5 2.5 2.5 2.5 2.5 2.5 2.5 2.5 2.5 2.5 2.5 2.5 2.5 2.5 2.5 2.5 2.5 2.5 2.5 2.412831 2.201492 1.962874 1.722926 1.468607 1.219494 0.9585971 0.6963255 0.4167043 0.1402375 -0.134443 -0.4145846 -0.6869167 -0.9634961 -1.148868 -1.249922 -1.373406 -1.492727 -1.636426 -1.776152 -1.943228 -2.070817 -2.194483 -2.365991 -2.444804 -2.324819 -2.187406 -2.054095 -1.943589 -1.850244 -1.738824 -1.619429 -1.486686 -1.373186 -1.259686 -1.0135 -0.7199712 -0.4390645 -0.1658814 0.09691469 0.3554201 0.5928221 0.79554 1.05696 1.189735 1.272064 1.444208 1.566846 1.394264 1.342806 1.141456 -0.03474331 -0.5857488 -1.137807 -2.140939 -2.482518 -2.450866 -2.435997 -2.732905 -2.514605 -2.309646 -1.998064 -2.25616 -2.130705 -2.005164 -1.876892 -1.824324 -1.824324 -1.824324 -1.824324 -1.824324 -1.824324 -1.824324 -1.824324 -1.824324 -1.824324 -1.824324 -1.824324 -1.755111 -1.647937 -1.545318 -1.417823 -1.253814 -1.138866 -0.9954188 -0.8149757 -0.6305557 -0.3837951 -0.2377888 -0.147126 -0.1385975 -0.167794 -0.1419211 -0.07547488 -0.05821601 -0.01482292 0.03879905 0.06917933 0.1134879 0.1824359 0.2136452 0.2515258 0.1458698 0.07861511 0.08045693 0.1490674 0.2466456 0.2896076 0.2645617 0.2717731 0.3216105 0.3763637 0.3563633 0.3443238 0.4084595 0.241636 0.2176078 0.2395994 0.27824 0.2227805 0.2493678 0.2660596 0.2514523 0.247823 0.2664087 0.2654441 0.2458056 0.1727606 0.1968019 0.2123598 0.2505224 0.212796 0.105072 0.1005988 0.1168925 0.09301563 0.1317322 0.1664277 0.3095542 0.3049116 0.3083597 0.3404594 0.3643193 -9999 -9999 -9999 -9999 -9999 -9999 -9999 -9999 -9999 -9999 -9999 -9999 -9999 -9999 -9999 -9999 -9999 -9999 -9999 -9999 -9999 -9999 -9999 -9999 -9999 -9999 -9999 -9999 -9999 -9999
-9999 -9999 -9999 -9999 -9999 -9999 -9999 -9999 -9999 -9999 -9999 -9999 -9999 -9999 -9999 -9999 -9999 -9999 -9999 -9999 -9999 -9999 -9999 -9999 -9999 -9999 -9999 -9999 -9999 -9999 -9999 -9999 -9999 -9999 -9999 -9999 -9999 -9999 -9999 -9999 -9999 -9999 -9999 -9999 -9999 -9999 -9999 -9999 -9999 -9999 -9999 -9999 -9999 -9999 -9999 -9999 -9999 -9999 -9999 -9999 -9999 -1.744134 -1.331191 -1.24189 -1.153537 -1.0651 -0.9766291 -0.8882819 -0.8001723 -0.7123767 -0.6247041 -0.5371542 -0.4497268 -0.3624218 -0.2752386 -0.1878198 -0.1005164 -0.0133348 0.07372528 0.1606641 0.2472238 0.3336189 0.4198938 0.5060489 0.5922239 0.6785011 0.7646587 0.8506969 0.9366158 1.022416 1.108097 1.192195 1.275722 1.359473 1.443376 1.527429 1.611634 1.695992 1.780501 1.864655 1.948222 2.032342 2.118081 2.203254 2.288785 2.374889 2.461248 2.5 2.5 2.5 2.5 2.5 2.5 2.5 2.5 2.5 2.5 2.5 2.5 2.5 2.5 2.5 2.5 2.5 2.5 2.5 2.5 2.5 2.5 2.5 2.5 2.5 2.5 2.5 2.5 2.5 2.5 2.5 2.5 2.5 2.5 2.5 2.5 2.316306 2.107001 1.893634 1.674906 1.436338 1.196277 0.9362495 0.6840734 0.4176942 0.1530561 -0.1248876 -0.400394 -0.6743678 -0.9490904 -1.135424 -1.225025 -1.330596 -1.436141 -1.561882 -1.685811 -1.831239 -1.975916 -2.143173 -2.311923 -2.435644 -2.357849 -2.251902 -2.160408 -2.056905 -1.928937 -1.791525 -1.6738 -1.561071 -1.457052 -1.337656 -1.200096 -0.8968226 -0.5930929 -0.3064483 -0.01291972 0.2645046 0.5348845 0.7959378 1.047979 1.2559 1.529234 1.639253 1.88553 2.003191 2.012455 1.95675 1.501855 0.882736 0.3869131 -0.4449347 -0.9246246 -1.447877 -2.210389 -2.977482 -2.731441 -2.429768 -2.076412 -2.476491 -2.381884 -2.256282 -2.114747 -1.997129 -1.880318 -1.824324 -1.824324 -1.824324 -1.824324 -1.824324 -1.824324 -1.824324 -1.824324 -1.824324 -1.824324 -1.824324 -1.824324 -1.761392 -1.649107 -1.511591 -1.395645 -1.272067 -1.099597 -0.9246899 -0.672714 -0.3778168 -0.1818083 -0.1732092 -0.1968299 -0.1825005 -0.1078391 -0.09058025 -0.04866042 0.007692275 0.03807255 0.07518886 0.1441369 0.1900003 0.2247595 0.2117498 0.05657566 0.05159516 0.09395448 0.1954813 0.273352 0.2730033 0.2379162 0.2892494 0.3286372 0.3712146 0.3301071 0.3612861 0.3589779 0.2117211 0.2084665 0.2594524 0.2311288 0.2242211 0.22559 0.262363 0.2338753 0.2625459 0.2405255 0.2486443 0.2160897 0.1656764 0.17291 0.1935986 0.2014668 0.1393793 0.08586475 0.1030315 0.1068617 0.06766503 0.08506237 0.09987397 0.1252763 0.1649722 0.302901 0.3041258 0.3186367 0.3578072 0.3557644 -9999 -9999 -9999 -9999 -9999 -9999 -9999 -9999 -9999 -9999 -9999 -9999 -9999 -9999 -9999 -9999 -9999 -9999 -9999 -9999 -9999 -9999 -9999 -9999 -9999 -9999 -9999 -9999
-9999 -9999 -9999 -9999 -9999 -9999 -9999 -9999 -9999 -9999 -9999 -9999 -9999 -9999 -9999 -9999 -9999 -9999 -9999 -9999 -9999 -9999 -9999 -9999 -9999 -9999 -9999 -9999 -9999 -9999 -9999 -9999 -9999 -9999 -9999 -9999 -9999 -9999 -9999 -9999 -9999 -9999 -9999 -9999 -9999 -9999 -9999 -9999 -9999 -9999 -9999 -9999 -9999 -9999 -9999 -9999 -9999 -9999 -9999 -9999 -9999 -1.608928 -1.519628 -1.430327 -1.341842 -1.253481 -1.165243 -1.07713 -0.9891402 -0.9011461 -0.8130373 -0.725052 -0.6371897 -0.5496729 -0.462359 -0.375167 -0.2880966 -0.2011476 -0.1143198 -0.02733704 0.05961161 0.1464393 0.2331463 0.3197329 0.4061331 0.4921782 0.578104 0.6639106 0.7496564 0.8355858 0.9213964 1.003986 1.087493 1.171454 1.255579 1.339855 1.424 1.508188 1.592528 1.676361 1.759306 1.842801 1.92685 2.01146 2.096636 2.179726 2.266736 2.354288 2.438316 2.5 2.5 2.5 2.5 2.5 2.5 2.5 2.5 2.5 2.5 2.5 2.5 2.5 2.5 2.5 2.5 2.5 2.5 2.5 2.5 2.5 2.5 2.5 2.5 2.5 2.5 2.5 2.5 2.5 2.5 2.5 2.5 2.394244 2.214995 2.012557 1.804879 1.592794 1.374438 1.148274 0.9100137 0.6677648 0.4038922 0.1469544 -0.1232087 -0.3902134 -0.6664795 -0.9410251 -1.126593 -1.21009 -1.290404 -1.397927 -1.487528 -1.618123 -1.723414 -1.873969 -2.000509 -2.16975 -2.328945 -2.464655 -2.36708 -2.248992 -2.11743 -1.985869 -1.87601 -1.781613 -1.659514 -1.533056 -1.408979 -1.293504 -1.089045 -0.7805643 -0.4758099 -0.1800222 0.1216714 0.4006031 0.6941273 0.9673654 1.23565 1.494961 1.719632 2.001507 2.174289 2.439537 2.5 2.5 2.329182 1.866709 1.263187 0.633269 0.1364689 -0.4673467 -1.618877 -2.356158 -2.549889 -2.176016 -2.670278 -2.633063 -2.507401 -2.352603 -2.237097 -2.12469 -2.006954 -1.891467 -1.824324 -1.824324 -1.824324 -1.824324 -1.824324 -1.824324 -1.824324 -1.824324 -1.824324 -1.824324 -1.824324 -1.824324 -1.769367 -1.652423 -1.535832 -1.380496 -1.21987 -1.018472 -0.7719537 -0.4829996 -0.2777602 -0.2258658 -0.2230799 -0.1408801 -0.1229445 -0.08249792 -0.0234145 0.006965778 0.03734605 0.1058379 0.1747859 0.1979933 0.2358739 0.03784752 0.02637496 0.03884161 0.1403684 0.2332353 0.2676837 0.2199133 0.2543396 0.2987871 0.3635707 0.3206957 0.3200489 0.391867 0.2048457 0.1809177 0.2068905 0.2533115 0.1891591 0.21603 0.2383112 0.2329405 0.2261128 0.2518773 0.240801 0.219318 0.1305409 0.1378724 0.1455462 0.1778208 0.1535281 0.06575881 0.06467627 0.09515437 0.08909974 0.05066779 0.07897805 0.09803736 0.1171718 0.1222305 0.1219765 0.1673608 0.2962477 0.3033401 0.3241549 0.3593939 -9999 -9999 -9999 -9999 -9999 -9999 -9999 -9999 -9999 -9999 -9999 -9999 -9999 -9999 -9999 -9999 -9999 -9999 -9999 -9999 -9999 -9999 -9999 -9999 -9999 -9999 -9999
-9999 -9999 -9999 -9999 -9999 -9999 -9999 -9999 -9999 -9999 -9999 -9999 -9999 -9999 -9999 -9999 -9999 -9999 -9999 -9999 -9999 -9999 -9999 -9999 -9999 -9999 -9999 -9999 -9999 -9999 -9999 -9999 -9999 -9999 -9999 -9999 -9999 -9999 -9999 -9999 -9999 -9999 -9999 -9999 -9999 -9999 -9999 -9999 -9999 -9999 -9999 -9999 -9999 -9999 -9999 -9999 -9999 -9999 -9999 -9999 -1.886665 -1.797365 -1.708064 -1.619384 -1.530566 -1.441768 -1.353283 -1.265038 -1.176916 -1.088918 -1.001044 -0.9132917 -0.8256625 -0.7381083 -0.6503596 -0.5627334 -0.4752294 -0.3878766 -0.3009187 -0.2140819 -0.1273659 -0.04077049 0.0457046 0.132254 0.2188505 0.3053269 0.3916834 0.4779203 0.5640378 0.6498599 0.7341727 0.8170263 0.900365 0.9838538 1.067493 1.151283 1.235225 1.319318 1.403141 1.486767 1.57039 1.65326 1.736679 1.820655 1.905193 1.986034 2.070628 2.153118 2.236695 2.31896 2.400932 2.486401 2.5 2.5 2.5 2.5 2.5 2.5 2.5 2.5 2.5 2.5 2.5 2.5 2.5 2.5 2.5 2.5 2.5 2.5 2.5 2.5 2.5 2.5 2.5 2.5 2.5 2.5 2.5 2.399689 2.245144 2.077413 1.912495 1.721459 1.503244 1.288369 1.075977 0.8552407 0.6216422 0.3836893 0.1362364 -0.1284652 -0.3908086 -0.6629622 -0.9334826 -1.122056 -1.188385 -1.270932 -1.343979 -1.449099 -1.529413 -1.66043 -1.757882 -1.90565 -2.027944 -2.186056 -2.33902 -2.36835 -2.27732 -2.169681 -2.072105 -1.974529 -1.861221 -1.741287 -1.613889 -1.500119 -1.384221 -1.262121 -0.9951625 -0.6786215 -0.3620806 -0.05255195 0.2469913 0.5367783 0.8333451 1.108757 1.397696 1.668131 1.935479 2.183363 2.471034 2.5 2.5 2.5 2.5 2.5 2.304568 1.718414 1.117011 0.2706192 -0.5401186 -1.211888 -1.567564 -2.864064 -2.884242 -2.75276 -2.590458 -2.477064 -2.369062 -2.251714 -2.134796 -2.023884 -1.892255 -1.824324 -1.824324 -1.824324 -1.824324 -1.824324 -1.824324 -1.824324 -1.824324 -1.824324 -1.824324 -1.824324 -1.824324 -1.792402 -1.661394 -1.517104 -1.36423 -1.144998 -0.8860515 -0.6905807 -0.5059653 -0.3116798 -0.1805234 -0.1553087 -0.1163354 -0.05452127 -0.024141 0.006239281 0.06753883 0.1364869 0.1712271 0.2091077 0.1037275 0.004428686 0.00378552 0.08525553 0.1854743 0.2482047 0.221648 0.2194298 0.2718159 0.3235295 0.3378257 0.3058386 0.3565482 0.3051386 0.1752187 0.1752626 0.2313732 0.2010428 0.1899229 0.1938874 0.2438511 0.2132234 0.2397326 0.2271573 0.2264635 0.1903791 0.1024949 0.106089 0.1209229 0.1500279 0.1103517 0.04994225 0.08129334 0.09378587 0.06345348 0.03367054 0.07289373 0.08162713 0.1007468 0.09467044 0.1267837 0.1381914 0.1327183 0.1737188 0.2895945 0.3025543 0.3194691 0.3459004 -9999 -9999 -9999 -9999 -9999 -9999 -9999 -9999 -9999 -9999 -9999 -9999 -9999 -9999 -9999 -9999 -9999 -9999 -9999 -9999 -9999 -9999 -9999 -9999 -9999
-9999 -9999 -9999 -9999 -9999 -9999 -9999 -9999 -9999 -9999 -9999 -9999 -9999 -9999 -9999 -9999 -9999 -9999 -9999 -9999 -9999 -9999 -9999 -9999 -9999 -9999 -9999 -9999 -9999 -9999 -9999 -9999 -9999 -9999 -9999 -9999 -9999 -9999 -9999 -9999 -9999 -9999 -9999 -9999 -9999 -9999 -9999 -9999 -9999 -9999 -9999 -9999 -9999 -9999 -9999 -9999 -9999 -9999 -9999 -9999 -2.075102 -1.985801 -1.896501 -1.807688 -1.718999 -1.630435 -1.541996 -1.45368 -1.365307 -1.276873 -1.188563 -1.100674 -1.012914 -0.9252761 -0.8377609 -0.7503678 -0.6630965 -0.5759469 -0.4885883 -0.4013186 -0.3141704 -0.2271432 -0.1403757 -0.05389151 0.03247269 0.1187171 0.2048421 0.2909608 0.3772077 0.4633353 0.545857 0.6292682 0.7128295 0.7965413 0.880028 0.9636491 1.047421 1.131345 1.21439 1.295811 1.377771 1.460275 1.54333 1.627596 1.712743 1.792341 1.875465 1.953748 2.035051 2.116041 2.193922 2.277049 2.362079 2.444738 2.5 2.5 2.5 2.5 2.5 2.5 2.5 2.5 2.5 2.5 2.5 2.5 2.5 2.5 2.5 2.5 2.5 2.5 2.5 2.5 2.5 2.5 2.44105 2.315338 2.190835 2.066223 1.92044 1.772108 1.596885 1.414235 1.215978 0.9939311 0.7719185 0.5545012 0.332924 0.09501019 -0.142635 -0.395292 -0.6608227 -0.9285715 -1.115772 -1.17813 -1.238228 -1.319448 -1.388406 -1.488317 -1.573605 -1.688108 -1.791062 -1.922933 -2.045409 -2.193176 -2.340031 -2.277042 -2.18979 -2.088916 -1.997886 -1.906856 -1.796682 -1.683532 -1.581979 -1.470874 -1.350939 -1.231004 -0.9049249 -0.5766306 -0.2508413 0.0473043 0.3638453 0.6754606 0.9697925 1.253579 1.545019 1.820431 2.100612 2.368897 2.5 2.5 2.5 2.5 2.5 2.5 2.5 2.5 2.101158 1.293895 0.572774 0.08141601 -1.013172 -2.072347 -2.974663 -2.829858 -2.717032 -2.609307 -2.495301 -2.380355 -2.278414 -2.115506 -2.009499 -1.901864 -1.824324 -1.824324 -1.824324 -1.824324 -1.824324 -1.824324 -1.824324 -1.824324 -1.824324 -1.824324 -1.824324 -1.824324 -1.814338 -1.683464 -1.501971 -1.289103 -1.103401 -0.9203633 -0.7464359 -0.4586899 -0.210381 -0.1501729 -0.08562805 -0.05524777 -0.02486749 0.02923979 0.09818783 0.1444609 0.1823414 0.1696074 -0.0176152 -0.02507626 0.03014265 0.1316694 0.2198249 0.2300897 0.1855019 0.2369061 0.2759636 0.3438639 0.2916177 0.295774 0.3752745 0.1685876 0.1448094 0.1741815 0.2283831 0.1555377 0.1826921 0.2105628 0.2144287 0.2044026 0.2373459 0.2161579 0.1886939 0.1293927 0.08650993 0.08154707 0.1021617 0.1009723 0.03673121 0.02875377 0.07341624 0.08518385 0.005013991 0.03713129 0.04147546 0.07187556 0.07351476 0.06837582 0.0916202 0.12339 0.136647 0.1500856 0.1513986 0.18273 0.2829412 0.3017686 0.3136432 0.3276073 -9999 -9999 -9999 -9999 -9999 -9999 -9999 -9999 -9999 -9999 -9999 -9999 -9999 -9999 -9999 -9999 -9999 -9999 -9999 -9999 -9999 -9999 -9999
-9999 -9999 -9999 -9999 -9999 -9999 -9999 -9999 -9999 -9999 -9999 -9999 -9999 -9999 -9999 -9999 -9999 -9999 -9999 -9999 -9999 -9999 -9999 -9999 -9999 -9999 -9999 -9999 -9999 -9999 -9999 -9999 -9999 -9999 -9999 -9999 -9999 -9999 -9999 -9999 -9999 -9999 -9999 -9999 -9999 -9999 -9999 -9999 -9999 -9999 -9999 -9999 -9999 -9999 -9999 -9999 -9999 -9999 -9999 -2.352839 -2.263539 -2.174238 -2.08523 -1.996032 -1.907171 -1.818475 -1.729904 -1.641456 -1.553133 -1.464933 -1.376856 -1.288903 -1.200971 -1.1129 -1.02495 -0.937227 -0.8498255 -0.7625458 -0.6753876 -0.5883507 -0.5014348 -0.4146397 -0.3277158 -0.2408001 -0.1540049 -0.06733006 0.01922473 0.1054116 0.1914266 0.2761506 0.3583306 0.4412566 0.5243319 0.607557 0.6911241 0.7749674 0.8589621 0.9428757 1.026096 1.106895 1.188229 1.270104 1.352525 1.435497 1.510818 1.591805 1.675784 1.754379 1.833408 1.913122 1.986913 2.067698 2.150331 2.222336 2.293496 2.362282 2.432919 2.493376 2.5 2.5 2.5 2.5 2.5 2.496783 2.491555 2.486113 2.480382 2.473536 2.46682 2.456105 2.43207 2.397664 2.36113 2.312961 2.239902 2.165414 2.083388 1.961285 1.837723 1.715486 1.598099 1.449755 1.299072 1.116357 0.9206986 0.7043394 0.4846181 0.2577109 0.03302506 -0.1936144 -0.43147 -0.6690903 -0.9268204 -1.112489 -1.161393 -1.223076 -1.283958 -1.356981 -1.432708 -1.51684 -1.608535 -1.705703 -1.814622 -1.927118 -2.054669 -2.185435 -2.268436 -2.190711 -2.106381 -2.013403 -1.929027 -1.844108 -1.736981 -1.629853 -1.536392 -1.428417 -1.315267 -1.147585 -0.8109787 -0.474372 -0.1476195 0.1635619 0.4918559 0.7898292 1.089771 1.403473 1.692594 1.972986 2.256693 2.5 2.5 2.5 2.5 2.5 2.5 2.5 2.5 2.5 2.5 2.393462 1.730396 1.011171 -0.04690232 -0.931484 -1.80368 -2.731719 -2.848998 -2.738888 -2.625975 -2.532324 -2.36299 -2.232249 -2.126771 -2.019868 -1.905883 -1.824324 -1.824324 -1.824324 -1.824324 -1.824324 -1.824324 -1.824324 -1.824324 -1.824324 -1.824324 -1.824324 -1.824324 -1.824324 -1.692155 -1.516222 -1.335202 -1.160588 -0.9054282 -0.6820416 -0.4304291 -0.1171931 -0.08635455 -0.05597427 -0.009059243 0.0598888 0.1182223 0.1555752 0.1934558 -0.004294855 -0.04781147 -0.02497022 0.07655657 0.172064 0.224841 0.1702927 0.2019963 0.2543824 0.3184218 0.3021582 0.2815637 0.3518103 0.2512994 0.1385285 0.1423886 0.203294 0.1709568 0.1556248 0.1656887 0.2178571 0.1941935 0.216645 0.2137891 0.2042828 0.1646686 0.0393134 0.03926807 0.0482472 0.09858911 0.07618818 0.0101894 0.04336178 0.06916286 0.06742191 -0.01198325 0.03104696 0.02506523 0.05546829 0.04654102 0.04839873 0.05420225 0.09547801 0.1118638 0.1332534 0.1465104 0.1597673 0.1704776 0.1768552 0.276288 0.2954993 0.3100786 -9999 -9999 -9999 -9999 -9999 -9999 -9999 -9999 -9999 -9999 -9999 -9999 -9999 -9999 -9999 -9999 -9999 -9999 -9999 -9999 -9999 -9999
-9999 -9999 -9999 -9999 -9999 -9999 -9999 -9999 -9999 -9999 -9999 -9999 -9999 -9999 -9999 -9999 -9999 -9999 -9999 -9999 -9999 -9999 -9999 -9999 -9999 -9999 -9999 -9999 -9999 -9999 -9999 -9999 -9999 -9999 -9999 -9999 -9999 -9999 -9999 -9999 -9999 -9999 -9999 -9999 -9999 -9999 -9999 -9999 -9999 -9999 -9999 -9999 -9999 -9999 -9999 -9999 -9999 -9999 -9999 -2.510307 -2.451975 -2.362675 -2.273534 -2.184518 -2.095628 -2.006861 -1.91822 -1.829467 -1.740777 -1.652446 -1.564239 -1.476154 -1.388193 -1.300355 -1.212639 -1.125046 -1.037552 -0.9498396 -0.8622489 -0.77478 -0.6876445 -0.60072 -0.5139162 -0.4272328 -0.3406696 -0.2542264 -0.1677347 -0.08117034 0.005274299 0.08805645 0.1710561 0.2541288 0.3370356 0.4200919 0.503298 0.5866544 0.6701615 0.7524198 0.8323157 0.91322 0.9953467 1.07802 1.161247 1.244054 1.317126 1.396642 1.469181 1.548361 1.626365 1.705015 1.779903 1.858346 1.938583 1.999935 2.066764 2.132539 2.200085 2.244739 2.265798 2.26045 2.251644 2.244411 2.231581 2.221625 2.204665 2.191804 2.17826 2.159006 2.143631 2.127256 2.098838 2.056795 2.011132 1.962644 1.870741 1.787746 1.710014 1.608064 1.486084 1.363449 1.241783 1.11885 0.9871797 0.8064995 0.6238788 0.4235638 0.1927012 -0.02810133 -0.2564965 -0.4884512 -0.7201531 -0.9577944 -1.112546 -1.157455 -1.20995 -1.258025 -1.325491 -1.384685 -1.466706 -1.535831 -1.633468 -1.714232 -1.828664 -1.927461 -2.055639 -2.180584 -2.180307 -2.109045 -2.027658 -1.942865 -1.865141 -1.783282 -1.682512 -1.581742 -1.496636 -1.391299 -1.284172 -1.06078 -0.7252572 -0.3886505 -0.05204377 0.2845629 0.6210093 0.9191796 1.232049 1.539632 1.8305 2.131485 2.415395 2.5 2.5 2.5 2.5 2.5 2.5 2.5 2.5 2.5 2.5 2.5 2.5 1.938035 1.097402 0.2504933 -0.6211798 -1.548744 -2.531934 -2.870572 -2.775192 -2.627083 -2.455 -2.351679 -2.245927 -2.123188 -2.01602 -1.929631 -1.824324 -1.824324 -1.824324 -1.824324 -1.824324 -1.824324 -1.824324 -1.824324 -1.824324 -1.824324 -1.824324 -1.824324 -1.824324 -1.75051 -1.57474 -1.35572 -1.153702 -0.9300058 -0.6280785 -0.3091816 -0.08708104 -0.04735828 0.02158976 0.09053781 0.128809 0.1666896 0.0615851 -0.06975774 -0.07288589 0.0214437 0.1229705 0.2064146 0.1787344 0.1670864 0.2194726 0.2706954 0.3192882 0.2673504 0.2837919 0.358682 0.1323294 0.1116055 0.1414725 0.2034546 0.1219163 0.1493543 0.1824072 0.1959169 0.1826924 0.2228144 0.1915148 0.1580698 0.1282444 0.0322292 0.01537618 0.029486 0.0495335 0.007703606 -0.007168716 0.05167811 0.07321952 -0.003373426 -0.01371092 0.004063909 0.01577887 0.03340072 0.01584519 0.0273109 0.01678431 0.05921265 0.05227891 0.07505169 0.1011916 0.137055 0.1563737 0.1696307 0.1829994 0.1830691 0.2430774 0.2881985 0.3210078 -9999 -9999 -9999 -9999 -9999 -9999 -9999 -9999 -9999 -9999 -9999 -9999 -9999 -9999 -9999 -9999 -9999 -9999 -9999 -9999
-9999 -9999 -9999 -9999 -9999 -9999 -9999 -9999 -9999 -9999 -9999 -9999 -9999 -9999 -9999 -9999 -9999 -9999 -9999 -9999 -9999 -9999 -9999 -9999 -9999 -9999 -9999 -9999 -9999 -9999 -9999 -9999 -9999 -9999 -9999 -9999 -9999 -9999 -9999 -9999 -9999 -9999 -9999 -9999 -9999 -9999 -9999 -9999 -9999 -9999 -9999 -9999 -9999 -9999 -9999 -9999 -9999 -9999 -2.579664 -2.557363 -2.535063 -2.512763 -2.461838 -2.37269 -2.283667 -2.194769 -2.105996 -2.017347 -1.928822 -1.840421 -1.752144 -1.663834 -1.575439 -1.487345 -1.399498 -1.311774 -1.224173 -1.136693 -1.049335 -0.9620991 -0.8749839 -0.7876857 -0.7004507 -0.6133367 -0.526363 -0.4397911 -0.3533391 -0.2670067 -0.1818716 -0.1003651 -0.0177134 0.06526577 0.1483944 0.2316729 0.3151017 0.3986811 0.4821881 0.5641255 0.6434 0.7231995 0.8035293 0.8843945 0.9658008 1.044463 1.123433 1.201479 1.269811 1.346717 1.423355 1.487272 1.562403 1.639334 1.719221 1.777534 1.840032 1.902797 1.967251 1.996102 2.012044 2.005798 1.992521 1.98259 1.967703 1.954478 1.939556 1.912684 1.892272 1.870776 1.827701 1.800188 1.762856 1.712946 1.656968 1.597528 1.498171 1.41649 1.336636 1.248161 1.128298 1.008469 0.8901669 0.7758083 0.6396001 0.5141438 0.3189982 0.1233394 -0.08807445 -0.318937 -0.5446117 -0.7746257 -1.009927 -1.119807 -1.166494 -1.21033 -1.249307 -1.298602 -1.354656 -1.403559 -1.491447 -1.546294 -1.649454 -1.723005 -1.834227 -1.929414 -2.048794 -2.16181 -2.096829 -2.031847 -1.95334 -1.876543 -1.80528 -1.72643 -1.632481 -1.53957 -1.460183 -1.359412 -1.258642 -0.9797167 -0.639317 -0.2957823 0.04775226 0.3786442 0.7068912 1.043498 1.380105 1.687808 1.985979 2.289436 2.5 2.5 2.5 2.5 2.5 2.5 2.5 2.5 2.5 2.5 2.5 2.5 2.5 2.5 2.298097 1.458139 0.5708002 -0.3668364 -1.318701 -2.330306 -2.891176 -2.678155 -2.576067 -2.470821 -2.353414 -2.227723 -2.176983 -2.062889 -1.944149 -1.826252 -1.824324 -1.824324 -1.824324 -1.824324 -1.824324 -1.824324 -1.824324 -1.824324 -1.824324 -1.824324 -1.824324 -1.824324 -1.811763 -1.617988 -1.406377 -1.147675 -0.8686202 -0.5905997 -0.3456409 -0.01512205 0.05223877 0.1020428 0.1399233 0.1274651 -0.09180605 -0.1000516 -0.03366918 0.06785762 0.1586537 0.1871761 0.1330876 0.1845627 0.2330044 0.3133141 0.2664907 0.2572887 0.3470724 0.1974601 0.1018383 0.1096796 0.1752148 0.1408708 0.1213266 0.13749 0.1901087 0.1751636 0.1935574 0.200421 0.182102 0.1377689 0.003543342 -0.01773551 -0.01730193 0.0218161 0.01692029 -0.03682086 -0.009530351 0.04511745 0.06350602 -0.05763704 -0.0107998 -0.03149668 0.0101898 -0.0015884 -0.0230177 -0.05537921 -0.001596828 -0.03451578 -0.03914431 0.001055922 0.05881523 0.05932268 0.08980145 0.09940151 0.1572199 0.179494 0.192751 0.2027638 0.226221 0.2808977 0.3036973 -9999 -9999 -9999 -9999 -9999 -9999 -9999 -9999 -9999 -9999 -9999 -9999 -9999 -9999 -9999 -9999 -9999 -9999
-9999 -9999 -9999 -9999 -9999 -9999 -9999 -9999 -9999 -9999 -9999 -9999 -9999 -9999 -9999 -9999 -9999 -9999 -9999 -9999 -9999 -9999 -9999 -9999 -9999 -9999 -9999 -9999 -9999 -9999 -9999 -9999 -9999 -9999 -9999 -9999 -9999 -9999 -9999 -9999 -9999 -9999 -9999 -9999 -9999 -9999 -9999 -9999 -9999 -9999 -9999 -9999 -9999 -9999 -9999 -9999 -9999 -2.667853 -2.626721 -2.604419 -2.582117 -2.559817 -2.537517 -2.515218 -2.471727 -2.38276 -2.293772 -2.204992 -2.116336 -2.027803 -1.939395 -1.85111 -1.762949 -1.67491 -1.586994 -1.499125 -1.411091 -1.323179 -1.235675 -1.148309 -1.061064 -0.9739408 -0.8869383 -0.8000565 -0.7132949 -0.6264303 -0.5395484 -0.4527867 -0.3697441 -0.2873246 -0.2049796 -0.1224862 -0.0398442 0.04294698 0.1258877 0.2090593 0.2912026 0.3714371 0.4514996 0.5320936 0.6132245 0.6935896 0.7743577 0.8419109 0.9178189 0.9954371 1.070441 1.145074 1.220436 1.280263 1.353052 1.427507 1.488678 1.554714 1.6133 1.673055 1.734418 1.747465 1.75829 1.751147 1.739124 1.726841 1.713405 1.686678 1.666425 1.625794 1.597963 1.568654 1.507624 1.469803 1.425754 1.369096 1.302804 1.232411 1.149749 1.05595 0.9589683 0.8808529 0.7749339 0.6542353 0.5349981 0.4173421 0.3098339 0.1802852 0.03070465 -0.164198 -0.3735983 -0.5997127 -0.8305753 -1.061122 -1.129744 -1.170788 -1.207088 -1.246786 -1.30748 -1.343521 -1.386069 -1.4666 -1.500191 -1.56084 -1.653598 -1.728565 -1.832201 -1.923765 -2.034986 -2.07689 -2.018527 -1.960165 -1.883654 -1.814259 -1.749278 -1.673367 -1.586047 -1.501516 -1.425201 -1.331253 -1.237303 -0.9048711 -0.5567822 -0.2061761 0.1444299 0.4778533 0.8127498 1.156284 1.486455 1.813004 2.139554 2.456437 2.5 2.5 2.5 2.5 2.5 2.5 2.5 2.5 2.5 2.5 2.5 2.5 2.5 2.5 2.5 2.5 1.798262 0.9095203 -0.03778027 -1.065887 -2.012465 -2.798817 -2.695384 -2.58364 -2.439425 -2.424335 -2.312015 -2.195149 -2.08127 -1.967958 -1.84833 -1.824324 -1.824324 -1.824324 -1.824324 -1.824324 -1.824324 -1.824324 -1.824324 -1.824324 -1.824324 -1.824324 -1.824324 -1.824324 -1.66727 -1.428059 -1.16442 -0.9217404 -0.586653 -0.2902245 -0.001361378 0.1131571 0.1510377 -0.04643722 -0.1219979 -0.08878205 0.01274475 0.1108927 0.1820163 0.1273791 0.1496529 0.2020391 0.2655877 0.2836207 0.2430784 0.279054 0.3148021 0.09607133 0.07840166 0.1103806 0.1785262 0.08829495 0.1160165 0.1542085 0.1774051 0.1609821 0.208283 0.1668717 0.1292135 0.1092421 -0.03095228 -0.05144479 -0.04318969 -0.001905339 -0.021324 -0.04309121 0.02993999 0.04729432 0.04574409 -0.07463428 -0.01688412 -0.04790691 -0.006217474 -0.02856214 -0.04299478 -0.1028817 -0.03207072 -0.1055158 -0.121407 -0.06804712 -0.04301615 -0.03040082 0.04989773 0.07294665 0.08003293 0.06174801 0.1195664 0.1773848 0.2026143 0.2159131 0.2319563 0.2799082 -9999 -9999 -9999 -9999 -9999 -9999 -9999 -9999 -9999 -9999 -9999 -9999 -9999 -9999 -9999 -9999 -9999
-9999 -9999 -9999 -9999 -9999 -9999 -9999 -9999 -9999 -9999 -9999 -9999 -9999 -9999 -9999 -9999 -9999 -9999 -9999 -9999 -9999 -9999 -9999 -9999 -9999 -9999 -9999 -9999 -9999 -9999 -9999 -9999 -9999 -9999 -9999 -9999 -9999 -9999 -9999 -9999 -9999 -9999 -9999 -9999 -9999 -9999 -9999 -9999 -9999 -9999 -9999 -9999 -9999 -9999 -9999 -9999 -9999 -2.696078 -2.673774 -2.651471 -2.629171 -2.606871 -2.58457 -2.562271 -2.539972 -2.517674 -2.481561 -2.392712 -2.303986 -2.215385 -2.126698 -2.038231 -1.949938 -1.861769 -1.773723 -1.6858 -1.597999 -1.51032 -1.422763 -1.335328 -1.247656 -1.160101 -1.07276 -0.9857497 -0.8988596 -0.8120897 -0.72544 -0.6398937 -0.558344 -0.4759254 -0.3933586 -0.310643 -0.2277783 -0.144764 -0.06191597 0.02100492 0.1021551 0.1799049 0.2581696 0.3369543 0.416343 0.4973581 0.5779228 0.6482183 0.7226558 0.7863075 0.8622102 0.9370316 1.010907 1.073253 1.1437 1.215759 1.257887 1.31804 1.374073 1.431609 1.490709 1.498829 1.505384 1.497422 1.48675 1.469675 1.4543 1.416623 1.391266 1.338904 1.303654 1.266532 1.18979 1.14393 1.095091 1.034563 0.9625379 0.8860809 0.8129948 0.6833804 0.5930785 0.5074782 0.4122987 0.2953119 0.1792147 0.0648475 -0.04863232 -0.1619907 -0.2775546 -0.4619135 -0.6647375 -0.8804883 -1.100247 -1.147713 -1.171277 -1.208275 -1.26175 -1.296515 -1.333751 -1.404629 -1.447618 -1.477921 -1.545304 -1.609968 -1.645726 -1.726795 -1.815207 -1.911314 -2.013302 -1.99174 -1.933378 -1.875015 -1.816652 -1.75829 -1.699927 -1.626723 -1.544225 -1.466707 -1.393395 -1.306075 -1.185308 -0.8318571 -0.4784063 -0.1249552 0.2279132 0.5716349 0.9179705 1.268577 1.601114 1.932751 2.264817 2.5 2.5 2.5 2.5 2.5 2.5 2.5 2.5 2.5 2.5 2.5 2.5 2.5 2.5 2.5 2.5 2.5 2.5 2.18734 1.236596 0.2940327 -0.6802527 -1.723685 -2.765854 -2.659685 -2.626516 -2.558063 -2.446276 -2.336287 -2.228698 -2.102001 -1.985083 -1.887443 -1.824324 -1.824324 -1.824324 -1.824324 -1.824324 -1.824324 -1.824324 -1.824324 -1.824324 -1.824324 -1.824324 -1.824324 -1.824324 -1.737217 -1.497839 -1.206599 -0.9445295 -0.6616944 -0.4034261 -0.08926527 0.01944273 -0.1439442 -0.1438949 -0.04236813 0.05915867 0.1452433 0.1358208 0.1147431 0.1671292 0.2178612 0.2968062 0.2308231 0.2330138 0.3423344 0.1436208 0.06514812 0.07697063 0.1471356 0.1107849 0.08702841 0.1092913 0.1623603 0.1561337 0.1704698 0.1870528 0.1599212 0.1071448 0.002395086 -0.06909799 -0.08130108 -0.05513527 -0.0423476 -0.08383112 -0.06242248 0.02206288 0.05265317 -0.07020033 -0.06084545 -0.07018754 -0.04540727 -0.04191205 -0.07566556 -0.09263652 -0.1402996 -0.06833608 -0.1651007 -0.2000813 -0.1371593 -0.1385877 -0.1196491 -0.03487714 -0.01829867 0.01988873 0.08925195 0.1602889 0.02409451 0.08191288 0.1397313 0.1975496 0.2257347 0.2334198 0.2796193 -9999 -9999 -9999 -9999 -9999 -9999 -9999 -9999 -9999 -9999 -9999 -9999 -9999 -9999 -9999
-9999 -9999 -9999 -9999 -9999 -9999 -9999 -9999 -9999 -9999 -9999 -9999 -9999 -9999 -9999 -9999 -9999 -9999 -9999 -9999 -9999 -9999 -9999 -9999 -9999 -9999 -9999 -9999 -9999 -9999 -9999 -9999 -9999 -9999 -9999 -9999 -9999 -9999 -9999 -9999 -9999 -9999 -9999 -9999 -9999 -9999 -9999 -9999 -9999 -9999 -9999 -9999 -9999 -9999 -9999 -9999 -2.746067 -2.743134 -2.72083 -2.698526 -2.676224 -2.653922 -2.631621 -2.60932 -2.587022 -2.564724 -2.542426 -2.520129 -2.491368 -2.402636 -2.314027 -2.225543 -2.137181 -2.048943 -1.960698 -1.872399 -1.784468 -1.696659 -1.608973 -1.521409 -1.433965 -1.346644 -1.259443 -1.172364 -1.085126 -0.9979265 -0.9108478 -0.8276643 -0.7460203 -0.664088 -0.5820081 -0.4997525 -0.4170582 -0.3342148 -0.2512217 -0.1690632 -0.08876083 -0.01022081 0.06862826 0.1467833 0.2254593 0.3046617 0.3743606 0.4487217 0.5242198 0.5858734 0.6583835 0.7306681 0.7919804 0.8605353 0.9306507 1.00238 1.033675 1.089246 1.142042 1.19626 1.244381 1.250191 1.253331 1.24448 1.233752 1.210552 1.192478 1.146568 1.116108 1.052015 1.009345 0.965232 0.91881 0.8617886 0.8031706 0.7325055 0.6499711 0.5621073 0.4688092 0.3312977 0.2349878 0.130191 0.04966363 -0.06092799 -0.1780173 -0.2934529 -0.4070984 -0.5146067 -0.6313447 -0.7450901 -0.9545314 -1.117792 -1.194958 -1.229415 -1.242275 -1.255707 -1.290271 -1.352713 -1.393757 -1.421032 -1.47849 -1.545616 -1.575114 -1.618859 -1.718451 -1.753335 -1.796188 -1.89275 -1.966014 -1.914397 -1.862779 -1.811162 -1.759545 -1.691845 -1.622281 -1.556415 -1.498052 -1.439689 -1.369792 -1.287294 -1.120683 -0.7598838 -0.4055048 -0.0520398 0.3014112 0.6548622 1.008313 1.360698 1.704419 2.048141 2.392724 2.5 2.5 2.5 2.5 2.5 2.5 2.5 2.5 2.5 2.5 2.5 2.5 2.5 2.5 2.5 2.5 2.5 2.5 2.5 2.5 1.657904 0.6621 -0.3541539 -1.3479 -2.387361 -2.804111 -2.698465 -2.590415 -2.484116 -2.365136 -2.236118 -2.228374 -2.016912 -1.899011 -1.824324 -1.824324 -1.824324 -1.824324 -1.824324 -1.824324 -1.824324 -1.824324 -1.824324 -1.824324 -1.824324 -1.824324 -1.824324 -1.824324 -1.591945 -1.322793 -1.062207 -0.803956 -0.4692071 -0.447118 -0.2431897 -0.097481 0.004045794 0.09748238 0.1442624 0.08067337 0.1322194 0.1846056 0.26048 0.2479531 0.2188035 0.2743161 0.2609628 0.05944914 0.04519778 0.08230142 0.1535977 0.05467355 0.08267871 0.1260097 0.1588933 0.1392719 0.1932602 0.149577 0.1070327 0.08353157 -0.09413376 -0.1182658 -0.1158654 -0.05723729 -0.06041965 -0.08469316 -0.01330693 0.0229996 0.04182819 -0.1202881 -0.05873088 -0.1044688 -0.05149596 -0.07669156 -0.1144112 -0.1752582 -0.1582939 -0.1665387 -0.2616167 -0.2727251 -0.2086073 -0.2341592 -0.2088975 -0.119652 -0.109544 -0.08435339 -0.02231296 0.01532374 -0.04325855 -0.0983735 -0.03857474 0.01559455 0.1020778 0.1598961 0.2177145 0.248855 0.2796977 -9999 -9999 -9999 -9999 -9999 -9999 -9999 -9999 -9999 -9999 -9999 -9999 -9999
-9999 -9999 -9999 -9999 -9999 -9999 -9999 -9999 -9999 -9999 -9999 -9999 -9999 -9999 -9999 -9999 -9999 -9999 -9999 -9999 -9999 -9999 -9999 -9999 -9999 -9999 -9999 -9999 -9999 -9999 -9999 -9999 -9999 -9999 -9999 -9999 -9999 -9999 -9999 -9999 -9999 -9999 -9999 -9999 -9999 -9999 -9999 -9999 -9999 -9999 -9999 -9999 -9999 -9999 -9999 -9999 -2.812491 -2.790185 -2.767881 -2.745579 -2.723277 -2.700975 -2.678673 -2.656372 -2.634072 -2.611772 -2.589474 -2.567176 -2.544879 -2.522584 -2.500288 -2.412532 -2.324041 -2.235672 -2.147427 -2.059305 -1.971305 -1.883428 -1.795621 -1.707625 -1.619917 -1.532466 -1.445137 -1.357928 -1.27084 -1.183873 -1.097916 -1.016145 -0.9341375 -0.851983 -0.7696804 -0.6872454 -0.6050383 -0.5226827 -0.4401783 -0.3598154 -0.2835903 -0.2057996 -0.1273874 -0.04845288 0.03100917 0.1104536 0.1730034 0.2438328 0.3150901 0.3865035 0.4567396 0.5277491 0.5736129 0.6384059 0.7050463 0.7741789 0.8112738 0.862514 0.9123001 0.9634261 0.9980522 1.001554 1.001277 0.9915373 0.980754 0.9514281 0.9306567 0.8765124 0.8409497 0.7933478 0.7481615 0.6974037 0.6438355 0.5417114 0.4727861 0.3954036 0.3061216 0.2079435 0.103693 -0.005456768 -0.1314097 -0.2303333 -0.3216825 -0.4235631 -0.5376747 -0.6500393 -0.7619736 -0.8730729 -0.9805809 -1.089184 -1.142289 -1.212157 -1.28967 -1.311118 -1.323977 -1.336837 -1.349697 -1.372266 -1.421606 -1.484719 -1.512695 -1.547697 -1.642137 -1.67921 -1.706535 -1.792005 -1.866618 -1.896702 -1.886781 -1.841546 -1.79631 -1.751075 -1.705839 -1.643846 -1.581201 -1.522068 -1.47045 -1.411323 -1.341759 -1.272195 -1.087637 -0.7228861 -0.3581347 0.002991259 0.3637906 0.7245901 1.080881 1.434429 1.787976 2.141524 2.493482 2.5 2.5 2.5 2.5 2.5 2.5 2.5 2.5 2.5 2.5 2.5 2.5 2.5 2.5 2.5 2.5 2.5 2.5 2.5 2.5 2.5 2.059764 1.019785 0.01813375 -1.07908 -2.103915 -2.841366 -2.737481 -2.628272 -2.487153 -2.569305 -2.324852 -2.161768 -2.047152 -1.903922 -1.824324 -1.824324 -1.824324 -1.824324 -1.824324 -1.824324 -1.824324 -1.824324 -1.824324 -1.824324 -1.824324 -1.824324 -1.824324 -1.824324 -1.723305 -1.463545 -1.17536 -0.9594342 -0.8115742 -0.5970866 -0.3405469 0.01122948 0.131833 0.08446545 0.09730957 0.1496957 0.2127535 0.2650832 0.2045932 0.2087389 0.3375965 0.08978151 0.02845795 0.04426166 0.1190564 0.08069886 0.05273023 0.0810926 0.1346119 0.1371038 0.1473822 0.1736846 0.1377405 0.07652071 0.001246831 -0.1204605 -0.1453002 -0.1320866 -0.1016155 -0.1239721 -0.1002022 0.0003247578 0.02672797 -0.02002852 -0.1246399 -0.0820457 -0.1150362 -0.07251371 -0.1066594 -0.1351956 -0.2599657 -0.1596194 -0.3228954 -0.39654 -0.3368295 -0.2974166 -0.3363425 -0.284975 -0.2137416 -0.2007893 -0.1885955 -0.1338779 -0.1296414 -0.2167704 -0.2431149 -0.2075331 -0.07886107 -0.06621875 0.03221357 0.1324274 0.1503809 0.1833418 0.2378794 -9999 -9999 -9999 -9999 -9999 -9999 -9999 -9999 -9999 -9999 -9999 -9999
-9999 -9999 -9999 -9999 -9999 -9999 -9999 -9999 -9999 -9999 -9999 -9999 -9999 -9999 -9999 -9999 -9999 -9999 -9999 -9999 -9999 -9999 -9999 -9999 -9999 -9999 -9999 -9999 -9999 -9999 -9999 -9999 -9999 -9999 -9999 -9999 -9999 -9999 -9999 -9999 -9999 -9999 -9999 -9999 -9999 -9999 -9999 -9999 -9999 -9999 -9999 -9999 -9999 -9999 -9999 -2.852939 -2.859548 -2.837241 -2.814935 -2.79263 -2.770326 -2.748023 -2.72572 -2.703421 -2.681122 -2.658822 -2.636522 -2.614224 -2.591926 -2.569629 -2.547333 -2.525038 -2.502744 -2.422401 -2.334026 -2.245774 -2.157644 -2.069637 -1.981753 -1.89399 -1.806349 -1.71883 -1.631432 -1.543821 -1.456305 -1.369181 -1.285686 -1.204716 -1.122907 -1.040922 -0.9587899 -0.8765094 -0.7940805 -0.7115027 -0.6293289 -0.5489588 -0.472506 -0.3964017 -0.3197917 -0.2426709 -0.1650343 -0.08976129 -0.02068923 0.04866969 0.1059604 0.1771884 0.2476978 0.3167994 0.3666034 0.4290541 0.4929342 0.5437 0.5888723 0.6357821 0.6825578 0.7305923 0.7502964 0.7529176 0.7492239 0.738595 0.7277558 0.6923047 0.6688352 0.6138533 0.5753498 0.5339431 0.4731436 0.4155037 0.3548034 0.2216342 0.1442295 0.06292712 -0.02971134 -0.1335003 -0.243675 -0.3422112 -0.4871539 -0.5884241 -0.6956545 -0.7861983 -0.8967899 -1.01027 -1.121904 -1.231539 -1.332785 -1.263249 -1.23666 -1.306523 -1.37996 -1.39282 -1.405679 -1.418539 -1.431399 -1.444258 -1.458566 -1.49126 -1.575681 -1.611141 -1.634977 -1.710194 -1.783307 -1.806707 -1.86556 -1.965152 -1.922538 -1.856071 -1.789604 -1.723138 -1.656671 -1.599819 -1.543066 -1.489896 -1.444661 -1.391224 -1.328578 -1.265932 -1.074002 -0.7050785 -0.3361555 0.02722877 0.3904614 0.7536941 1.116927 1.480159 1.843392 2.206999 2.5 2.5 2.5 2.5 2.5 2.5 2.5 2.5 2.5 2.5 2.5 2.5 2.5 2.5 2.5 2.5 2.5 2.5 2.5 2.5 2.5 2.5 2.5 2.386114 1.333221 0.2925552 -0.7401213 -1.760337 -2.77714 -2.743929 -2.801831 -2.683667 -2.424509 -2.319092 -2.116656 -2.153262 -1.986778 -1.868075 -1.824324 -1.824324 -1.824324 -1.824324 -1.824324 -1.824324 -1.824324 -1.824324 -1.824324 -1.824324 -1.824324 -1.824324 -1.824324 -1.824324 -1.590237 -1.394631 -1.177055 -0.9371396 -0.6619993 -0.3766225 -0.1470846 0.04498176 0.1147859 0.167172 0.2553723 0.2122856 0.1945286 0.2695782 0.2071235 0.02275896 0.01246874 0.05422223 0.1253927 0.02105216 0.04934089 0.09781104 0.1403815 0.1187724 0.1701726 0.1362089 0.08485198 0.05621982 -0.1234542 -0.1733434 -0.1801501 -0.1341887 -0.1196875 -0.1317034 -0.06619906 -0.001045805 0.03208682 -0.1370272 -0.10798 -0.144439 -0.1065934 -0.1172248 -0.1671763 -0.2125839 -0.2973836 -0.1958848 -0.3824804 -0.4752143 -0.4059416 -0.4172148 -0.4532334 -0.3282302 -0.3343729 -0.2920346 -0.2928376 -0.2454428 -0.2746065 -0.3902822 -0.3878562 -0.3764914 -0.2326615 -0.244258 -0.1372006 -0.08503697 0.02010943 0.06135026 0.1358557 0.06156614 -9999 -9999 -9999 -9999 -9999 -9999 -9999 -9999 -9999 -9999 -9999
-9999 -9999 -9999 -9999 -9999 -9999 -9999 -9999 -9999 -9999 -9999 -9999 -9999 -9999 -9999 -9999 -9999 -9999 -9999 -9999 -9999 -9999 -9999 -9999 -9999 -9999 -9999 -9999 -9999 -9999 -9999 -9999 -9999 -9999 -9999 -9999 -9999 -9999 -9999 -9999 -9999 -9999 -9999 -9999 -9999 -9999 -9999 -9999 -9999 -9999 -9999 -9999 -9999 -9999 -9999 -2.928905 -2.906596 -2.884291 -2.861987 -2.839683 -2.817379 -2.795075 -2.772772 -2.750469 -2.728168 -2.705867 -2.683567 -2.661269 -2.638973 -2.616675 -2.594378 -2.572082 -2.549787 -2.527493 -2.505199 -2.43229 -2.344092 -2.255911 -2.167833 -2.079941 -1.992171 -1.904523 -1.816997 -1.729591 -1.642307 -1.555938 -1.473945 -1.39235 -1.310607 -1.228826 -1.147182 -1.065389 -0.9834495 -0.9011245 -0.8207363 -0.7438927 -0.66752 -0.5906404 -0.5132487 -0.4353398 -0.3570156 -0.2957419 -0.2264642 -0.1561273 -0.09806406 -0.02995037 0.03798161 0.09906932 0.1595939 0.2197022 0.2811864 0.3129093 0.365922 0.4090503 0.4528155 0.4977586 0.5016935 0.5042806 0.4971705 0.4850176 0.4733704 0.4331813 0.4070136 0.3595558 0.3192385 0.2729135 0.1862539 0.1211947 0.05268123 -0.05017368 -0.1350333 -0.2254043 -0.3270127 -0.4396746 -0.5592683 -0.6789657 -0.8239083 -0.9465146 -1.053745 -1.150843 -1.259425 -1.370661 -1.481205 -1.521413 -1.451878 -1.382342 -1.331033 -1.401218 -1.461662 -1.474522 -1.487382 -1.500242 -1.513101 -1.525961 -1.53882 -1.552129 -1.573256 -1.639531 -1.707688 -1.728874 -1.77825 -1.873841 -1.910803 -1.910858 -1.852968 -1.800367 -1.75174 -1.703113 -1.654486 -1.605859 -1.557232 -1.504336 -1.43787 -1.375748 -1.318994 -1.262241 -1.071677 -0.7016621 -0.3316467 0.0383687 0.4083841 0.7783995 1.148415 1.51843 1.888446 2.258317 2.5 2.5 2.5 2.5 2.5 2.5 2.5 2.5 2.5 2.5 2.5 2.5 2.5 2.5 2.5 2.5 2.5 2.5 2.5 2.5 2.5 2.5 2.5 2.5 2.5 1.649554 0.6181681 -0.4066566 -1.400015 -2.495325 -3.042483 -2.688368 -2.588675 -2.379721 -2.337294 -2.30162 -2.330384 -1.988496 -1.879409 -1.824324 -1.824324 -1.824324 -1.824324 -1.824324 -1.824324 -1.824324 -1.824324 -1.824324 -1.824324 -1.824324 -1.824324 -1.824324 -1.824324 -1.751483 -1.530931 -1.312537 -1.041214 -0.7782774 -0.6126484 -0.3221173 -0.1081331 0.1191137 0.2294156 0.1803183 0.2015598 0.3242407 0.03594222 -0.008232234 0.0115527 0.09097721 0.05061287 0.01843205 0.05289388 0.1068634 0.1180739 0.1242946 0.1603165 0.1155597 0.04589661 9.857507e-05 -0.171823 -0.2092994 -0.2073023 -0.1538386 -0.1529997 -0.1361247 -0.02141337 0.000881755 0.02015037 -0.1829391 -0.106662 -0.177441 -0.1131817 -0.1517947 -0.2058047 -0.2951372 -0.314991 -0.2985617 -0.4840891 -0.5465062 -0.4781948 -0.5290205 -0.5570762 -0.3949564 -0.4334921 -0.4046823 -0.4121823 -0.4051084 -0.4427751 -0.5343766 -0.5827967 -0.5220017 -0.4070648 -0.4272111 -0.363876 -0.3636275 -0.2949318 -0.2232047 -0.1218706 -0.2456239 -9999 -9999 -9999 -9999 -9999 -9999 -9999 -9999 -9999 -9999 -9999
-9999 -9999 -9999 -9999 -9999 -9999 -9999 -9999 -9999 -9999 -9999 -9999 -9999 -9999 -9999 -9999 -9999 -9999 -9999 -9999 -9999 -9999 -9999 -9999 -9999 -9999 -9999 -9999 -9999 -9999 -9999 -9999 -9999 -9999 -9999 -9999 -9999 -9999 -9999 -9999 -9999 -9999 -9999 -9999 -9999 -9999 -9999 -9999 -9999 -9999 -9999 -9999 -9999 -9999 -2.959812 -2.975961 -2.953652 -2.931344 -2.909037 -2.88673 -2.864425 -2.842121 -2.819819 -2.797518 -2.775217 -2.752915 -2.730614 -2.708315 -2.686016 -2.663718 -2.64142 -2.619124 -2.59683 -2.574535 -2.552241 -2.529947 -2.507655 -2.442097 -2.354015 -2.266055 -2.178217 -2.090473 -2.002561 -1.915027 -1.827615 -1.743708 -1.662545 -1.581119 -1.499547 -1.417827 -1.335961 -1.253946 -1.171784 -1.089595 -1.01008 -0.9360012 -0.8614317 -0.7863666 -0.7101303 -0.6328793 -0.5568973 -0.4959042 -0.4301532 -0.365257 -0.2974339 -0.2315943 -0.1649373 -0.1215142 -0.0632386 -0.003636539 0.05733778 0.08211865 0.1292478 0.1695443 0.2109218 0.2534246 0.2530907 0.2556437 0.2451171 0.2312638 0.2187189 0.1744383 0.1459636 0.1052582 0.06155413 0.01059096 -0.09688975 -0.167671 -0.2426132 -0.3219127 -0.4242009 -0.524231 -0.6349471 -0.7568529 -0.8869169 -1.025025 -1.160663 -1.305605 -1.411836 -1.519066 -1.62206 -1.732652 -1.710042 -1.640506 -1.57097 -1.501435 -1.431899 -1.495929 -1.543365 -1.556224 -1.569084 -1.581943 -1.594803 -1.607663 -1.620523 -1.633382 -1.646242 -1.661427 -1.702536 -1.794451 -1.82732 -1.848922 -1.941897 -1.945326 -1.896928 -1.839648 -1.780385 -1.720398 -1.66041 -1.600422 -1.540435 -1.481092 -1.427014 -1.372936 -1.318857 -1.264779 -1.097534 -0.7218508 -0.3461676 0.0295155 0.4051987 0.7808818 1.156565 1.532248 1.907931 2.283092 2.5 2.5 2.5 2.5 2.5 2.5 2.5 2.5 2.5 2.5 2.5 2.5 2.5 2.5 2.5 2.5 2.5 2.5 2.5 2.5 2.5 2.5 2.5 2.5 2.5 2.5 1.964157 0.932646 -0.002961742 -1.213765 -1.916345 -2.753244 -2.661928 -2.521324 -2.776239 -2.483777 -2.608215 -2.050072 -2.207571 -2.101435 -1.824324 -1.824324 -1.824324 -1.824324 -1.824324 -1.824324 -1.824324 -1.824324 -1.824324 -1.824324 -1.824324 -1.824324 -1.824324 -1.824324 -1.824324 -1.678114 -1.446097 -1.216154 -1.020178 -0.7375929 -0.5501173 -0.286889 -0.1581176 0.01382034 0.2635444 0.1532842 -0.01393122 -0.02024023 0.02614303 0.09530673 -0.01258064 0.01514656 0.06961233 0.1141577 0.09974252 0.147085 0.1228407 0.06267121 0.02559572 -0.1246025 -0.2247059 -0.2441492 -0.21114 -0.1789554 -0.1787137 -0.1190912 -0.02509121 0.006161616 -0.08685543 -0.1717744 -0.1562971 -0.1762223 -0.1478265 -0.1981702 -0.255143 -0.3826614 -0.3122502 -0.471878 -0.6326017 -0.6090228 -0.5544912 -0.624592 -0.6463245 -0.4797313 -0.5236793 -0.5227089 -0.5337404 -0.5679023 -0.6119332 -0.6770871 -0.7807928 -0.665853 -0.58336 -0.6108089 -0.6016785 -0.6422181 -0.609973 -0.5077596 -0.3795969 -0.5540888 -0.8575282 -9999 -9999 -9999 -9999 -9999 -9999 -9999 -9999 -9999 -9999
-9999 -9999 -9999 -9999 -9999 -9999 -9999 -9999 -9999 -9999 -9999 -9999 -9999 -9999 -9999 -9999 -9999 -9999 -9999 -9999 -9999 -9999 -9999 -9999 -9999 -9999 -9999 -9999 -9999 -9999 -9999 -9999 -9999 -9999 -9999 -9999 -9999 -9999 -9999 -9999 -9999 -9999 -9999 -9999 -9999 -9999 -9999 -9999 -9999 -9999 -9999 -9999 -9999 -9999 -3.045318 -3.023009 -3.000701 -2.978395 -2.956089 -2.933783 -2.911477 -2.889171 -2.866867 -2.844563 -2.82226 -2.799958 -2.777659 -2.75536 -2.733061 -2.710762 -2.688464 -2.666167 -2.64387 -2.621574 -2.59928 -2.576986 -2.554694 -2.532401 -2.51011 -2.451877 -2.36391 -2.276065 -2.188342 -2.10074 -2.01396 -1.931746 -1.850562 -1.769433 -1.688348 -1.606937 -1.525241 -1.443397 -1.361405 -1.281002 -1.204091 -1.129241 -1.053893 -0.9780446 -0.9016888 -0.8261734 -0.7598639 -0.6941069 -0.6273447 -0.5743867 -0.5078335 -0.441636 -0.3773082 -0.3400466 -0.2855918 -0.2292409 -0.1708637 -0.148672 -0.1074264 -0.07026285 -0.0321022 0.007096199 0.004487799 0.007006707 -0.006936395 -0.02248998 -0.03593248 -0.07708018 -0.1081576 -0.1490393 -0.208501 -0.2645675 -0.3544287 -0.4286086 -0.5104414 -0.5968872 -0.7442781 -0.8546154 -0.9692372 -1.093986 -1.229538 -1.373431 -1.497417 -1.64236 -1.769927 -1.877157 -1.965365 -1.871736 -1.829134 -1.759598 -1.690063 -1.620528 -1.550992 -1.59064 -1.625067 -1.637927 -1.650786 -1.663646 -1.676505 -1.689365 -1.702225 -1.715084 -1.727944 -1.740804 -1.75499 -1.774246 -1.857456 -1.925766 -1.942884 -1.885853 -1.829789 -1.778814 -1.729204 -1.683916 -1.638628 -1.593339 -1.548051 -1.502762 -1.445759 -1.388479 -1.3312 -1.27392 -1.143882 -0.7681984 -0.3925152 -0.01683202 0.3593315 0.7373874 1.115443 1.493499 1.871555 2.24961 2.5 2.5 2.5 2.5 2.5 2.5 2.5 2.5 2.5 2.5 2.5 2.5 2.5 2.5 2.5 2.5 2.5 2.5 2.5 2.5 2.5 2.5 2.5 2.5 2.5 2.5 2.5 2.329294 1.31506 0.427439 -0.4244247 -1.251581 -1.928523 -3.103515 -2.85828 -2.937268 -2.530182 -2.353967 -2.529479 -2.49912 -2.112301 -1.927082 -1.824324 -1.824324 -1.824324 -1.824324 -1.824324 -1.824324 -1.824324 -1.824324 -1.824324 -1.824324 -1.824324 -1.824324 -1.824324 -1.824324 -1.824324 -1.649693 -1.405365 -1.193594 -0.9567764 -0.7438486 -0.5937543 -0.4098958 -0.1469646 -0.2685716 -0.1634089 -0.02115627 0.06289801 0.02052688 -0.01586613 0.02469517 0.07911503 0.09904403 0.101207 0.1469483 0.09337895 0.01527251 -0.001049681 -0.2275809 -0.2757996 -0.2789991 -0.213242 -0.1970275 -0.1795757 -0.06997564 -0.02316365 0.01152047 -0.2038541 -0.1551145 -0.2186904 -0.1677795 -0.1925376 -0.258687 -0.3325314 -0.4544676 -0.3234335 -0.59986 -0.7503474 -0.6747239 -0.6536484 -0.7320077 -0.709738 -0.5849238 -0.6138666 -0.6407355 -0.6552986 -0.7306961 -0.7810912 -0.8197977 -0.9787889 -0.8097042 -0.7596552 -0.7944067 -0.8402586 -0.9271638 -0.9217981 -0.7814323 -0.6626927 -0.8877137 -1.210339 -9999 -9999 -9999 -9999 -9999 -9999 -9999 -9999 -9999 -9999
-9999 -9999 -9999 -9999 -9999 -9999 -9999 -9999 -9999 -9999 -9999 -9999 -9999 -9999 -9999 -9999 -9999 -9999 -9999 -9999 -9999 -9999 -9999 -9999 -9999 -9999 -9999 -9999 -9999 -9999 -9999 -9999 -9999 -9999 -9999 -9999 -9999 -9999 -9999 -9999 -9999 -9999 -9999 -9999 -9999 -9999 -9999 -9999 -9999 -9999 -9999 -9999 -9999 -3.066684 -3.092374 -3.070063 -3.047753 -3.025443 -3.003135 -2.980827 -2.958522 -2.936218 -2.913915 -2.891612 -2.869308 -2.847005 -2.824703 -2.802402 -2.780102 -2.757802 -2.735505 -2.713209 -2.690912 -2.668616 -2.64632 -2.624025 -2.601731 -2.579438 -2.557146 -2.534855 -2.512564 -2.46163 -2.373778 -2.286048 -2.201731 -2.120346 -2.039331 -1.958171 -1.876865 -1.795412 -1.713812 -1.632065 -1.550518 -1.472051 -1.399024 -1.324819 -1.250121 -1.174926 -1.099228 -1.024366 -0.9658445 -0.9016501 -0.8364744 -0.7820015 -0.7182843 -0.6535281 -0.5946853 -0.5470561 -0.4949436 -0.4416383 -0.401278 -0.3773875 -0.3417358 -0.3079391 -0.2732329 -0.2392322 -0.2441151 -0.2416303 -0.2589898 -0.2762438 -0.2905839 -0.3285987 -0.3622789 -0.4033368 -0.4785561 -0.5397259 -0.6119676 -0.6895463 -0.7782697 -0.8718618 -1.01939 -1.134734 -1.257569 -1.391287 -1.535713 -1.689024 -1.834172 -1.979115 -2.124057 -2.143069 -2.042506 -1.941942 -1.888944 -1.862764 -1.809156 -1.73962 -1.670084 -1.685352 -1.706769 -1.719629 -1.732489 -1.745348 -1.758208 -1.771068 -1.783927 -1.796787 -1.809646 -1.822506 -1.835366 -1.848552 -1.864287 -1.920461 -1.958298 -1.915914 -1.872872 -1.818799 -1.764725 -1.708324 -1.651293 -1.594261 -1.53723 -1.480198 -1.428273 -1.377297 -1.326321 -1.275346 -1.190077 -0.8129489 -0.4358208 -0.05869275 0.3179813 0.6911516 1.064322 1.437492 1.810663 2.183833 2.5 2.5 2.5 2.5 2.5 2.5 2.5 2.5 2.5 2.5 2.5 2.5 2.5 2.5 2.5 2.5 2.5 2.5 2.5 2.5 2.5 2.5 2.5 2.5 2.5 2.5 2.5 2.5 2.5 1.916179 1.068153 0.3320423 -0.6881655 -1.572062 -2.250455 -3.288128 -2.335437 -2.914925 -3.140518 -2.679772 -2.611289 -2.464872 -2.11551 -1.824324 -1.824324 -1.824324 -1.824324 -1.824324 -1.824324 -1.824324 -1.824324 -1.824324 -1.824324 -1.824324 -1.824324 -1.824324 -1.824324 -1.824324 -1.824324 -1.613993 -1.380329 -1.203269 -1.023803 -0.7983584 -0.7200664 -0.6615139 -0.5315939 -0.3806422 -0.1763117 -0.1928163 -0.07027657 0.04141362 0.08640933 0.08071262 0.1239974 0.1094725 0.04049045 -0.005028379 -0.1257507 -0.2760684 -0.3081484 -0.2880914 -0.2382233 -0.225724 -0.1719833 -0.04913662 -0.01976359 -0.03668362 -0.2355688 -0.1681553 -0.2458513 -0.1784281 -0.229164 -0.2977022 -0.4150163 -0.4716881 -0.4305847 -0.7065615 -0.8202872 -0.7477822 -0.7734466 -0.8488986 -0.7529932 -0.7055551 -0.7040538 -0.7587621 -0.7768567 -0.89349 -0.9502492 -0.9625082 -1.175448 -0.9568142 -0.9370148 -0.9653156 -1.08236 -1.222807 -1.230736 -1.050015 -0.9496787 -1.221339 -1.526872 -1.178411 -9999 -9999 -9999 -9999 -9999 -9999 -9999 -9999 -9999
-9999 -9999 -9999 -9999 -9999 -9999 -9999 -9999 -9999 -9999 -9999 -9999 -9999 -9999 -9999 -9999 -9999 -9999 -9999 -9999 -9999 -9999 -9999 -9999 -9999 -9999 -9999 -9999 -9999 -9999 -9999 -9999 -9999 -9999 -9999 -9999 -9999 -9999 -9999 -9999 -9999 -9999 -9999 -9999 -9999 -9999 -9999 -9999 -9999 -9999 -9999 -9999 -3.276036 -3.157447 -3.139421 -3.117111 -3.094802 -3.072494 -3.050187 -3.027879 -3.005571 -2.983264 -2.960958 -2.938653 -2.91635 -2.894048 -2.871748 -2.849447 -2.827146 -2.804846 -2.782546 -2.760247 -2.73795 -2.715653 -2.693357 -2.671064 -2.64877 -2.626476 -2.604182 -2.58189 -2.559599 -2.537308 -2.515019 -2.471982 -2.389546 -2.308945 -2.228101 -2.14711 -2.065974 -1.984692 -1.903263 -1.821686 -1.741268 -1.664289 -1.590961 -1.517146 -1.443113 -1.369736 -1.295869 -1.224248 -1.164812 -1.104139 -1.045604 -0.9822887 -0.9199282 -0.8576238 -0.8144253 -0.7639468 -0.7123194 -0.6595033 -0.6320686 -0.5997889 -0.5684677 -0.5376815 -0.5060666 -0.4855607 -0.492718 -0.4902672 -0.5110433 -0.5299976 -0.5452353 -0.5801172 -0.6164001 -0.6576343 -0.7399965 -0.8037788 -0.8716698 -0.9663966 -1.061265 -1.161169 -1.290137 -1.413996 -1.5459 -1.688589 -1.841887 -2.004617 -2.170926 -2.315869 -2.336883 -2.220211 -2.119647 -2.019083 -1.932333 -1.906153 -1.879973 -1.853792 -1.789177 -1.775612 -1.788472 -1.801331 -1.814191 -1.82705 -1.83991 -1.85277 -1.865629 -1.878489 -1.891349 -1.904208 -1.917068 -1.929928 -1.942787 -1.95785 -1.921355 -1.869864 -1.818372 -1.76688 -1.715388 -1.667204 -1.62482 -1.582435 -1.54005 -1.497666 -1.447039 -1.392965 -1.338892 -1.284818 -1.230744 -0.8620603 -0.4873613 -0.1126619 0.2617675 0.6265374 0.9913073 1.356077 1.720858 2.085642 2.450426 2.5 2.5 2.5 2.5 2.5 2.5 2.5 2.5 2.5 2.5 2.5 2.5 2.5 2.5 2.5 2.5 2.5 2.5 2.5 2.5 2.5 2.5 2.5 2.5 2.5 2.5 2.5 2.5 2.5 2.5 1.815123 0.8608621 0.1430655 -0.7352054 -1.506777 -1.893818 -3.255529 -3.509443 -2.93915 -3.136725 -3.132399 -2.430117 -2.186183 -1.906628 -1.824324 -1.824324 -1.824324 -1.824324 -1.824324 -1.824324 -1.824324 -1.824324 -1.824324 -1.824324 -1.824324 -1.824324 -1.824324 -1.824324 -1.824324 -1.81456 -1.632123 -1.451766 -1.240608 -1.179383 -1.048177 -0.894466 -0.7444885 -0.5825884 -0.5556164 -0.4322677 -0.2816113 -0.1610157 -0.09689344 0.04475995 0.05784413 -0.01239805 -0.02532927 -0.2504518 -0.3289513 -0.3429982 -0.2901934 -0.2562954 -0.226586 -0.1228678 -0.04720906 -0.01440474 -0.1536823 -0.2189089 -0.2305486 -0.2374085 -0.2231393 -0.2896809 -0.3750905 -0.5025404 -0.4689473 -0.603901 -0.8550742 -0.8828038 -0.8240787 -0.8932448 -0.9657894 -0.7962484 -0.8261864 -0.794241 -0.8767886 -0.8967696 -1.04938 -1.121975 -1.106809 -1.341978 -1.116689 -1.117492 -1.170151 -1.291823 -1.442395 -1.451641 -1.256272 -1.101134 -1.292778 -1.562324 -1.690124 -9999 -9999 -9999 -9999 -9999 -9999 -9999 -9999 -9999
-9999 -9999 -9999 -9999 -9999 -9999 -9999 -9999 -9999 -9999 -9999 -9999 -9999 -9999 -9999 -9999 -9999 -9999 -9999 -9999 -9999 -9999 -9999 -9999 -9999 -9999 -9999 -9999 -9999 -9999 -9999 -9999 -9999 -9999 -9999 -9999 -9999 -9999 -9999 -9999 -9999 -9999 -9999 -9999 -9999 -9999 -9999 -9999 -9999 -9999 -9999 -9999 -3.173557 -3.208786 -3.186474 -3.164162 -3.14185 -3.119539 -3.097231 -3.074924 -3.052617 -3.030311 -3.008007 -2.985701 -2.963396 -2.941092 -2.918788 -2.896486 -2.874185 -2.851885 -2.829587 -2.80729 -2.784991 -2.762693 -2.740396 -2.7181 -2.695804 -2.67351 -2.651216 -2.628925 -2.606634 -2.584342 -2.562052 -2.540486 -2.519746 -2.497543 -2.416795 -2.335902 -2.254863 -2.173726 -2.092713 -2.011308 -1.932675 -1.859222 -1.78654 -1.713374 -1.639722 -1.565577 -1.491836 -1.429966 -1.369293 -1.307692 -1.254734 -1.192855 -1.13097 -1.071416 -1.035009 -0.9870126 -0.9379238 -0.8877048 -0.8628593 -0.8228703 -0.7951996 -0.7674237 -0.7389004 -0.7318891 -0.7415076 -0.7410873 -0.7630967 -0.7837514 -0.7998868 -0.8316358 -0.8705214 -0.9119318 -0.994294 -1.05989 -1.132699 -1.244666 -1.344441 -1.450458 -1.562636 -1.71019 -1.851632 -2.001401 -2.158261 -2.325577 -2.499884 -2.474005 -2.43005 -2.313305 -2.196788 -2.096225 -1.995661 -1.949542 -1.923362 -1.897181 -1.871001 -1.85446 -1.85908 -1.865667 -1.87496 -1.884253 -1.893545 -1.902838 -1.912132 -1.921424 -1.930717 -1.94001 -1.949303 -1.958596 -1.967889 -1.980804 -1.968397 -1.916975 -1.865554 -1.814132 -1.76271 -1.711288 -1.659867 -1.608445 -1.557023 -1.505602 -1.45418 -1.402758 -1.351336 -1.299915 -1.246633 -0.9381747 -0.5734049 -0.2086349 0.156135 0.520909 0.8856935 1.250472 1.605212 1.950696 2.29618 2.5 2.5 2.5 2.5 2.5 2.5 2.5 2.5 2.5 2.5 2.5 2.5 2.5 2.5 2.5 2.5 2.5 2.5 2.5 2.5 2.5 2.5 2.5 2.5 2.5 2.5 2.5 2.5 2.5 2.5 2.5 2.5 1.716751 0.8165274 0.3928723 -0.5623377 -1.665486 -2.336766 -3.099673 -3.820022 -3.536161 -2.850536 -2.628499 -2.433749 -2.135701 -1.824324 -1.824324 -1.824324 -1.824324 -1.824324 -1.824324 -1.824324 -1.824324 -1.824324 -1.824324 -1.824324 -1.824324 -1.824324 -1.824324 -1.824324 -1.824324 -1.824324 -1.714193 -1.558025 -1.411266 -1.257694 -1.102787 -0.9992791 -0.9175693 -0.7908216 -0.6559654 -0.5476735 -0.4635574 -0.3561867 -0.3330794 -0.3257909 -0.313262 -0.4644222 -0.4680453 -0.4297863 -0.3260181 -0.2727342 -0.2248755 -0.07375222 -0.0452815 -0.009045881 -0.2706811 -0.202249 -0.2929419 -0.2289657 -0.2678504 -0.3501978 -0.4524788 -0.5900645 -0.4662064 -0.7772173 -1.003587 -0.9453204 -0.9003751 -1.013043 -1.08268 -0.8398106 -0.9423372 -0.8928129 -0.9888831 -1.033777 -1.201207 -1.267756 -1.247474 -1.477879 -1.265877 -1.260118 -1.292949 -1.389921 -1.523248 -1.543182 -1.3884 -1.267488 -1.418633 -1.626045 -1.723675 -9999 -9999 -9999 -9999 -9999 -9999 -9999 -9999 -9999
-9999 -9999 -9999 -9999 -9999 -9999 -9999 -9999 -9999 -9999 -9999 -9999 -9999 -9999 -9999 -9999 -9999 -9999 -9999 -9999 -9999 -9999 -9999 -9999 -9999 -9999 -9999 -9999 -9999 -9999 -9999 -9999 -9999 -9999 -9999 -9999 -9999 -9999 -9999 -9999 -9999 -9999 -9999 -9999 -9999 -9999 -9999 -9999 -9999 -9999 -9999 -3.315805 -3.263934 -3.255833 -3.233521 -3.21121 -3.1889 -3.16659 -3.144281 -3.121971 -3.099662 -3.077354 -3.055047 -3.032742 -3.010438 -2.988135 -2.965833 -2.94353 -2.921228 -2.898926 -2.876625 -2.854325 -2.832025 -2.809729 -2.787433 -2.765138 -2.742842 -2.720546 -2.698252 -2.675958 -2.653665 -2.631373 -2.608974 -2.587954 -2.567401 -2.546863 -2.526475 -2.506234 -2.444143 -2.363128 -2.281967 -2.201534 -2.124486 -2.052681 -1.981033 -1.909603 -1.836604 -1.763117 -1.691717 -1.635947 -1.576836 -1.516821 -1.463863 -1.403422 -1.342862 -1.288793 -1.253706 -1.209589 -1.163528 -1.115906 -1.09365 -1.059544 -1.034984 -1.009765 -0.9838598 -0.9782175 -0.9903865 -0.9931407 -1.01515 -1.03716 -1.054088 -1.083591 -1.126158 -1.168563 -1.248592 -1.316001 -1.393729 -1.502205 -1.605379 -1.718287 -1.83761 -1.988606 -2.134434 -2.289733 -2.455562 -2.495039 -2.488356 -2.463984 -2.40686 -2.378839 -2.289727 -2.173366 -2.072802 -1.992931 -1.966751 -1.94057 -1.91439 -1.901167 -1.889645 -1.903738 -1.924493 -1.945247 -1.966002 -1.980148 -1.988387 -1.996625 -2.004864 -2.007722 -2.00869 -2.009658 -2.010627 -1.961455 -1.963202 -1.956247 -1.904825 -1.853404 -1.801982 -1.750561 -1.699139 -1.647717 -1.596296 -1.544874 -1.493452 -1.44203 -1.390609 -1.339187 -1.271021 -1.043807 -0.6790375 -0.3142576 0.05051628 0.4135096 0.7589934 1.111374 1.463142 1.798994 2.134846 2.465715 2.5 2.5 2.5 2.5 2.5 2.5 2.5 2.5 2.5 2.5 2.5 2.5 2.5 2.5 2.5 2.5 2.5 2.5 2.5 2.5 2.5 2.5 2.5 2.5 2.5 2.5 2.5 2.5 2.5 2.5 2.5 2.5 2.5 1.87385 0.9949727 0.01903301 -0.4914741 -1.553378 -2.633581 -2.921561 -3.324428 -3.211424 -3.069641 -2.917619 -2.596387 -1.955908 -1.824324 -1.824324 -1.824324 -1.824324 -1.824324 -1.824324 -1.824324 -1.824324 -1.824324 -1.824324 -1.824324 -1.824324 -1.824324 -1.824324 -1.824324 -1.824324 -1.824324 -1.774335 -1.626417 -1.481287 -1.395886 -1.280306 -1.149692 -1.03032 -0.9343311 -0.8302215 -0.7571335 -0.7240028 -0.6854458 -0.7042696 -0.7688316 -0.7491195 -0.706435 -0.6119642 -0.5583178 -0.4794946 -0.3162 -0.2561848 -0.2224685 -0.4408846 -0.3530353 -0.4311552 -0.3497953 -0.3970118 -0.474383 -0.5699243 -0.7041503 -0.5644082 -0.9283395 -1.136491 -1.062755 -1.031366 -1.145033 -1.211758 -0.9996369 -1.104328 -1.069231 -1.161338 -1.194471 -1.335771 -1.393353 -1.380355 -1.559794 -1.401502 -1.400965 -1.429408 -1.504774 -1.605273 -1.622182 -1.514865 -1.434444 -1.544489 -1.689765 -1.757226 -1.760975 -9999 -9999 -9999 -9999 -9999 -9999 -9999 -9999
-9999 -9999 -9999 -9999 -9999 -9999 -9999 -9999 -9999 -9999 -9999 -9999 -9999 -9999 -9999 -9999 -9999 -9999 -9999 -9999 -9999 -9999 -9999 -9999 -9999 -9999 -9999 -9999 -9999 -9999 -9999 -9999 -9999 -9999 -9999 -9999 -9999 -9999 -9999 -9999 -9999 -9999 -9999 -9999 -9999 -9999 -9999 -9999 -9999 -9999 -9999 -3.28043 -3.325198 -3.302885 -3.280571 -3.258257 -3.235945 -3.213634 -3.191324 -3.169016 -3.146708 -3.124401 -3.102094 -3.079787 -3.05748 -3.035175 -3.01287 -2.990567 -2.968266 -2.945966 -2.923666 -2.901366 -2.879066 -2.856766 -2.834468 -2.81217 -2.789874 -2.767579 -2.745286 -2.722993 -2.700699 -2.678406 -2.656561 -2.635423 -2.614636 -2.594001 -2.573515 -2.553213 -2.533106 -2.512988 -2.471589 -2.392941 -2.31942 -2.24826 -2.176628 -2.104518 -2.031926 -1.959305 -1.894088 -1.836936 -1.778909 -1.725951 -1.66731 -1.608412 -1.55031 -1.507336 -1.464655 -1.421002 -1.376344 -1.346256 -1.324441 -1.296219 -1.274791 -1.252789 -1.230188 -1.224546 -1.239265 -1.245194 -1.267204 -1.289213 -1.30703 -1.336589 -1.385282 -1.430384 -1.502889 -1.572113 -1.654759 -1.759744 -1.866317 -1.986115 -2.112585 -2.259354 -2.413697 -2.496879 -2.490195 -2.483512 -2.476828 -2.470144 -2.422195 -2.365072 -2.309221 -2.26615 -2.149943 -2.04938 -2.01014 -1.983959 -1.964723 -1.953202 -1.94168 -1.930158 -1.93226 -1.953015 -1.973769 -1.994524 -2.01528 -2.036034 -2.056789 -2.077544 -2.096364 -2.104602 -2.112841 -2.062999 -1.971199 -1.945599 -1.944098 -1.892676 -1.841254 -1.789832 -1.738411 -1.686989 -1.635568 -1.584146 -1.532724 -1.481303 -1.429881 -1.378459 -1.295409 -1.149439 -0.7846652 -0.4313039 -0.07167071 0.2879625 0.6260777 0.9686146 1.321059 1.653532 1.966442 2.28235 2.5 2.5 2.5 2.5 2.5 2.5 2.5 2.5 2.5 2.5 2.5 2.5 2.5 2.5 2.5 2.5 2.5 2.5 2.5 2.5 2.5 2.5 2.5 2.5 2.5 2.5 2.5 2.5 2.5 2.5 2.5 2.5 2.5 2.5 2.5 1.822716 1.128724 0.1921546 -0.8208442 -1.109614 -1.827664 -2.672904 -3.555152 -4.035234 -3.287303 -3.043944 -2.266411 -1.824324 -1.824324 -1.824324 -1.824324 -1.824324 -1.824324 -1.824324 -1.824324 -1.824324 -1.824324 -1.824324 -1.824324 -1.824324 -1.824324 -1.824324 -1.824324 -1.824324 -1.824324 -1.824324 -1.759514 -1.646215 -1.525473 -1.407465 -1.314016 -1.20876 -1.148612 -1.107161 -1.044263 -1.095277 -1.073241 -1.030194 -0.9821514 -0.8979053 -0.8456613 -0.7750542 -0.6329697 -0.5783086 -0.5422949 -0.7176479 -0.6404297 -0.7020862 -0.6365404 -0.6759752 -0.7396022 -0.8168517 -0.9325312 -0.8229899 -1.117098 -1.284606 -1.23046 -1.210029 -1.301714 -1.356471 -1.199637 -1.283804 -1.26285 -1.336354 -1.365795 -1.472828 -1.518169 -1.513237 -1.641709 -1.537128 -1.541813 -1.565866 -1.619626 -1.687299 -1.701183 -1.641331 -1.601401 -1.670346 -1.753486 -1.790776 -1.794526 -9999 -9999 -9999 -9999 -9999 -9999 -9999 -9999
-9999 -9999 -9999 -9999 -9999 -9999 -9999 -9999 -9999 -9999 -9999 -9999 -9999 -9999 -9999 -9999 -9999 -9999 -9999 -9999 -9999 -9999 -9999 -9999 -9999 -9999 -9999 -9999 -9999 -9999 -9999 -9999 -9999 -9999 -9999 -9999 -9999 -9999 -9999 -9999 -9999 -9999 -9999 -9999 -9999 -9999 -9999 -9999 -9999 -9999 -3.355574 -3.370421 -3.372246 -3.349931 -3.327618 -3.305305 -3.282994 -3.260683 -3.238371 -3.216059 -3.193749 -3.171441 -3.149134 -3.126828 -3.104523 -3.082218 -3.059914 -3.037609 -3.015305 -2.993002 -2.9707 -2.948399 -2.9261 -2.903803 -2.881505 -2.859208 -2.83691 -2.814613 -2.792317 -2.770022 -2.747728 -2.725103 -2.703857 -2.683079 -2.662117 -2.641309 -2.620651 -2.600143 -2.579783 -2.559569 -2.539445 -2.520494 -2.503474 -2.443839 -2.372856 -2.301399 -2.229465 -2.159187 -2.100069 -2.044479 -1.988039 -1.935081 -1.877877 -1.820304 -1.765523 -1.72792 -1.687721 -1.646607 -1.604546 -1.577047 -1.555231 -1.532893 -1.514598 -1.495813 -1.476517 -1.470875 -1.488144 -1.497248 -1.519257 -1.541266 -1.559973 -1.589587 -1.641766 -1.689035 -1.757187 -1.833625 -1.920401 -2.017283 -2.127254 -2.253943 -2.387559 -2.498719 -2.492035 -2.485351 -2.478667 -2.471984 -2.4653 -2.458617 -2.43753 -2.380406 -2.323283 -2.266159 -2.214055 -2.126521 -2.053529 -2.028279 -2.016757 -2.005235 -1.993714 -1.982192 -1.97067 -1.960782 -1.981537 -2.002292 -2.023047 -2.043802 -2.064556 -2.085311 -2.106066 -2.126821 -2.13629 -2.113861 -2.057539 -1.980944 -1.927997 -1.931948 -1.880526 -1.829105 -1.777683 -1.726261 -1.674839 -1.623418 -1.571996 -1.520574 -1.469153 -1.404012 -1.319796 -1.235581 -0.895082 -0.5468391 -0.1940084 0.1594168 0.5080818 0.8413476 1.154258 1.483728 1.788225 2.099335 2.388729 2.5 2.5 2.5 2.5 2.5 2.5 2.5 2.5 2.5 2.5 2.5 2.5 2.5 2.5 2.5 2.5 2.5 2.5 2.5 2.5 2.5 2.5 2.5 2.5 2.5 2.5 2.5 2.5 2.5 2.5 2.5 2.5 2.5 2.5 2.5 2.5 1.944204 1.036358 0.50105 -0.2187628 -1.026191 -1.906392 -3.138482 -3.464887 -4.188455 -3.133916 -2.808893 -2.023628 -1.824324 -1.824324 -1.824324 -1.824324 -1.824324 -1.824324 -1.824324 -1.824324 -1.824324 -1.824324 -1.824324 -1.824324 -1.824324 -1.824324 -1.824324 -1.824324 -1.824324 -1.824324 -1.824324 -1.824324 -1.785121 -1.690349 -1.598336 -1.523425 -1.461226 -1.391231 -1.394932 -1.355958 -1.306636 -1.256719 -1.183733 -1.132436 -1.069578 -0.9497397 -0.9004325 -0.8621213 -0.9944112 -0.927824 -0.9730171 -0.9232857 -0.9549387 -1.004822 -1.066532 -1.158167 -1.083108 -1.305856 -1.432721 -1.398166 -1.388691 -1.458396 -1.501183 -1.399637 -1.463279 -1.456468 -1.51137 -1.53712 -1.609884 -1.642985 -1.646118 -1.723624 -1.672754 -1.68266 -1.702325 -1.734478 -1.769325 -1.780183 -1.767797 -1.768357 -1.796201 -1.817207 -1.824324 -1.824324 -1.824324 -9999 -9999 -9999 -9999 -9999 -9999 -9999
-9999 -9999 -9999 -9999 -9999 -9999 -9999 -9999 -9999 -9999 -9999 -9999 -9999 -9999 -9999 -9999 -9999 -9999 -9999 -9999 -9999 -9999 -9999 -9999 -9999 -9999 -9999 -9999 -9999 -9999 -9999 -9999 -9999 -9999 -9999 -9999 -9999 -9999 -9999 -9999 -9999 -9999 -9999 -9999 -9999 -9999 -9999 -9999 -9999 -9999 -3.387302 -3.441611 -3.419295 -3.39698 -3.374664 -3.35235 -3.330037 -3.307726 -3.285415 -3.263104 -3.240795 -3.218487 -3.196178 -3.173869 -3.151561 -3.129255 -3.106951 -3.084647 -3.062344 -3.040042 -3.017741 -2.995438 -2.973137 -2.950836 -2.928536 -2.906238 -2.883941 -2.861646 -2.839351 -2.817056 -2.794761 -2.772635 -2.7511 -2.72989 -2.708835 -2.687932 -2.667438 -2.647109 -2.62658 -2.606198 -2.586107 -2.567667 -2.550323 -2.5332 -2.516397 -2.498275 -2.426774 -2.359068 -2.30605 -2.252022 -2.197169 -2.14421 -2.088444 -2.032196 -1.982901 -1.948503 -1.910787 -1.872211 -1.832747 -1.807837 -1.786022 -1.769567 -1.754405 -1.738837 -1.722845 -1.719179 -1.737023 -1.749301 -1.77131 -1.79332 -1.812915 -1.842585 -1.893285 -1.943156 -2.011484 -2.093846 -2.182907 -2.277283 -2.392443 -2.499209 -2.494251 -2.489284 -2.482372 -2.473823 -2.467139 -2.460456 -2.453772 -2.447089 -2.440405 -2.395742 -2.338618 -2.281494 -2.224371 -2.167247 -2.103099 -2.080313 -2.068791 -2.057269 -2.045747 -2.034226 -2.022704 -2.011182 -1.99966 -2.010059 -2.030814 -2.051569 -2.072324 -2.093078 -2.113833 -2.134588 -2.128634 -2.108177 -2.08772 -2.052079 -1.990689 -1.910394 -1.919798 -1.868376 -1.816955 -1.765533 -1.714112 -1.66269 -1.611268 -1.559846 -1.508425 -1.4284 -1.344184 -1.259968 -1.003206 -0.651726 -0.3048952 0.02916354 0.3544877 0.685106 0.9896029 1.314566 1.62498 1.903008 2.188994 2.460085 2.5 2.5 2.5 2.5 2.5 2.5 2.5 2.5 2.5 2.5 2.5 2.5 2.5 2.5 2.5 2.5 2.5 2.5 2.5 2.5 2.5 2.5 2.5 2.5 2.5 2.5 2.5 2.5 2.5 2.5 2.5 2.5 2.5 2.5 2.5 2.5 2.5 2.114153 1.3685 0.5987124 -0.3220171 -1.14867 -1.87371 -2.844378 -3.509873 -3.852566 -2.940848 -2.476444 -1.863655 -1.824324 -1.824324 -1.824324 -1.824324 -1.824324 -1.824324 -1.824324 -1.824324 -1.824324 -1.824324 -1.824324 -1.824324 -1.824324 -1.824324 -1.824324 -1.824324 -1.824324 -1.824324 -1.824324 -1.824324 -1.824324 -1.824324 -1.815291 -1.738199 -1.68685 -1.632502 -1.580421 -1.531286 -1.469562 -1.418923 -1.361101 -1.266316 -1.222158 -1.185507 -1.270237 -1.216284 -1.243367 -1.210351 -1.234598 -1.271106 -1.316371 -1.382132 -1.345809 -1.489113 -1.577635 -1.567437 -1.568236 -1.613307 -1.644954 -1.603894 -1.641344 -1.650955 -1.685378 -1.70827 -1.745571 -1.767398 -1.779209 -1.804606 -1.808991 -1.823535 -1.824324 -1.824324 -1.824324 -1.824324 -1.824324 -1.824324 -1.824324 -1.824324 -1.824324 -1.824324 -1.824324 -9999 -9999 -9999 -9999 -9999 -9999 -9999
-9999 -9999 -9999 -9999 -9999 -9999 -9999 -9999 -9999 -9999 -9999 -9999 -9999 -9999 -9999 -9999 -9999 -9999 -9999 -9999 -9999 -9999 -9999 -9999 -9999 -9999 -9999 -9999 -9999 -9999 -9999 -9999 -9999 -9999 -9999 -9999 -9999 -9999 -9999 -9999 -9999 -9999 -9999 -9999 -9999 -9999 -9999 -9999 -9999 -3.459656 -3.476908 -3.488658 -3.466341 -3.444026 -3.421711 -3.399397 -3.377084 -3.354771 -3.332457 -3.310146 -3.287836 -3.265526 -3.243218 -3.22091 -3.198604 -3.176298 -3.153991 -3.131685 -3.109379 -3.087075 -3.064773 -3.042472 -3.020172 -2.997873 -2.975574 -2.953274 -2.930975 -2.908677 -2.886379 -2.864083 -2.841369 -2.819761 -2.798647 -2.777371 -2.756143 -2.735068 -2.714146 -2.693375 -2.672753 -2.652045 -2.63277 -2.61484 -2.597195 -2.579774 -2.562971 -2.545702 -2.529173 -2.514476 -2.502713 -2.459256 -2.406298 -2.352332 -2.297745 -2.242997 -2.200278 -2.167366 -2.133587 -2.097816 -2.060949 -2.038628 -2.011662 -1.999706 -1.987663 -1.975559 -1.969174 -1.967781 -1.985902 -2.001354 -2.023364 -2.045373 -2.065857 -2.095583 -2.144803 -2.197278 -2.265782 -2.348144 -2.439018 -2.499857 -2.494115 -2.489482 -2.484523 -2.479564 -2.474594 -2.466197 -2.456024 -2.448928 -2.442244 -2.435561 -2.428877 -2.411077 -2.353953 -2.29683 -2.239706 -2.182583 -2.134221 -2.11315 -2.108119 -2.109304 -2.097782 -2.08626 -2.074738 -2.063216 -2.051694 -2.040172 -2.038581 -2.059336 -2.080091 -2.100846 -2.121601 -2.141435 -2.120978 -2.100522 -2.080065 -2.059608 -2.039151 -1.990297 -1.905966 -1.907649 -1.856227 -1.804806 -1.753383 -1.701962 -1.65054 -1.599119 -1.537003 -1.452788 -1.368572 -1.28472 -1.117872 -0.7805595 -0.4448204 -0.1135156 0.2001661 0.5297982 0.8594303 1.139259 1.444301 1.715392 1.998984 2.263476 2.5 2.5 2.5 2.5 2.5 2.5 2.5 2.5 2.5 2.5 2.5 2.5 2.5 2.5 2.5 2.5 2.5 2.5 2.5 2.5 2.5 2.5 2.5 2.5 2.5 2.5 2.5 2.5 2.5 2.5 2.5 2.5 2.5 2.5 2.5 2.5 2.5 2.5 2.5 2.279298 1.418298 0.7585425 -0.2662455 -0.8626274 -1.875866 -2.557799 -3.307908 -3.022566 -2.452197 -2.219391 -1.824324 -1.824324 -1.824324 -1.824324 -1.824324 -1.824324 -1.824324 -1.824324 -1.824324 -1.824324 -1.824324 -1.824324 -1.824324 -1.824324 -1.824324 -1.824324 -1.824324 -1.824324 -1.824324 -1.824324 -1.824324 -1.824324 -1.824324 -1.824324 -1.824324 -1.824324 -1.805854 -1.75539 -1.70541 -1.652624 -1.582849 -1.543547 -1.51346 -1.544549 -1.506942 -1.512176 -1.498096 -1.515462 -1.538928 -1.566402 -1.604352 -1.610867 -1.667961 -1.720283 -1.737692 -1.748277 -1.767321 -1.788293 -1.806475 -1.82199 -1.824324 -1.824324 -1.824324 -1.824324 -1.824324 -1.824324 -1.824324 -1.824324 -1.824324 -1.824324 -1.824324 -1.824324 -1.824324 -1.824324 -1.824324 -1.824324 -1.824324 -1.824324 -1.824324 -1.824324 -9999 -9999 -9999 -9999 -9999 -9999 -9999
