ncols        202
nrows        30
xllcorner    306854.389035
yllcorner    6063230.52204
cellsize     9.979016700000
NODATA_value  -9999
-9999 -9999 -9999 -9999 -9999 -9999 -9999 -9999 -9999 -9999 -9999 -9999 -9999 -9999 -9999 -9999 -9999 -9999 -9999 2.5 2.5 2.5 2.5 2.5 2.5 2.5 2.5 2.5 2.5 2.5 2.5 2.5 2.5 2.5 2.5 2.5 2.5 2.5 2.5 2.5 2.5 2.5 2.5 2.5 2.5 2.5 2.5 2.5 2.5 2.5 2.5 2.5 2.5 2.4686522483825683594 2.4293718338012695313 2.3890674114227294922 2.2879250049591064453 2.2365839481353759766 2.1915354728698730469 2.1382133960723876953 2.0636119842529296875 1.9820353984832763672 1.7503927946090698242 1.6716430187225341797 1.580392003059387207 1.4841421842575073242 1.6143026351928710938 1.8199597597122192383 1.7796612977981567383 1.7601045370101928711 1.645725250244140625 1.5691093206405639648 1.4822596311569213867 1.6151944398880004883 1.408980250358581543 1.3198763132095336914 1.2032892704010009766 0.94619375467300415039 0.89961445331573486328 0.57238996028900146484 0.43722847104072570801 0.33599627017974853516 -0.084805987775325775146 -0.32889029383659362793 -0.48259916901588439941 -0.65310424566268920898 -0.87285685539245605469 -1.0975018739700317383 -1.2979998588562011719 -1.5243183374404907227 -1.7687700986862182617 -1.9921153783798217773 -2.1598680019378662109 -2.3353655338287353516 -2.4419658184051513672 -2.5349986553192138672 -2.5405404567718505859 -2.5405404567718505859 -2.5405404567718505859 -2.5405404567718505859 -2.5405404567718505859 -2.5405404567718505859 -2.5405404567718505859 -2.5405404567718505859 -2.5405404567718505859 -2.1751167774200439453 -1.7945094108581542969 -1.3941969871520996094 -1.032619476318359375 -0.71202719211578369141 -0.40022495388984680176 -0.11654005944728851318 0.10282737761735916138 0.1322018057107925415 0.14544974267482757568 0.14821355044841766357 0.14370529353618621826 0.10220451653003692627 0.099576011300086975098 0.058047134429216384888 0.043678879737854003906 0.072600327432155609131 0.1000774577260017395 -0.056919764727354049683 0.051317710429430007935 0.071397438645362854004 0.12532697618007659912 0.19760921597480773926 0.19042386114597320557 0.19967517256736755371 0.17203818261623382568 0.18955284357070922852 0.15824845433235168457 0.19478501379489898682 0.23480249941349029541 0.22032825648784637451 0.2299295961856842041 0.14944696426391601563 -0.03625245019793510437 -0.10232438892126083374 -0.32775646448135375977 -0.33128651976585388184 -0.37895992398262023926 -0.42998671531677246094 -0.42506933212280273438 -0.44830802083015441895 -0.39293009042739868164 -0.36912700533866882324 -0.41861957311630249023 -0.28005748987197875977 -0.25123608112335205078 -0.26684200763702392578 -0.18911175429821014404 -0.28933122754096984863 -0.1759897768497467041 -0.21913793683052062988 -0.041150581091642379761 0.15449826419353485107 0.10843326151371002197 0.13812628388404846191 0.23694321513175964355 0.33576017618179321289 0.37674036622047424316 0.15394690632820129395 0.3097648918628692627 0.34536179900169372559 -9999 -9999 -9999 -9999 -9999 -9999 -9999 -9999 -9999 -9999 -9999 -9999 -9999 -9999 -9999 -9999 -9999 -9999 -9999 -9999 -9999 -9999 -9999 -9999 -9999 -9999 -9999 -9999 -9999 -9999 -9999 -9999 -9999 -9999 -9999 -9999
-9999 -9999 -9999 -9999 -9999 -9999 -9999 -9999 -9999 -9999 -9999 -9999 -9999 -9999 -9999 -9999 -9999 -9999 -9999 2.5 2.5 2.5 2.5 2.5 2.5 2.5 2.5 2.5 2.5 2.5 2.5 2.5 2.5 2.5 2.5 2.5 2.5 2.5 2.5 2.5 2.5 2.5 2.5 2.5 2.5 2.5 2.5 2.5 2.5 2.5 2.5 2.5 2.5 2.5 2.5 2.4670672416687011719 2.4127192497253417969 2.357818603515625 2.3090178966522216797 2.2431499958038330078 2.1709139347076416016 2.0116667747497558594 1.919337153434753418 1.8304619789123535156 1.7388006448745727539 1.8202407360076904297 1.8465781211853027344 1.9214396476745605469 1.9014170169830322266 1.7998090982437133789 1.7442189455032348633 1.647183537483215332 1.7516824007034301758 1.5695574283599853516 1.4946520328521728516 1.418792724609375 1.1472179889678955078 1.0986391305923461914 0.83537024259567260742 0.67717611789703369141 0.59383994340896606445 0.19349144399166107178 -0.022208012640476226807 -0.17446096241474151611 -0.32547608017921447754 -0.55228257179260253906 -0.75953263044357299805 -0.94865965843200683594 -1.1586843729019165039 -1.4090230464935302734 -1.7793500423431396484 -2.0285990238189697266 -2.1961824893951416016 -2.2589571475982666016 -2.3423225879669189453 -2.4746417999267578125 -2.5405404567718505859 -2.5405404567718505859 -2.5405404567718505859 -2.5405404567718505859 -2.5405404567718505859 -2.5405404567718505859 -2.5405404567718505859 -2.5405404567718505859 -2.5405404567718505859 -2.4004178047180175781 -2.0001053810119628906 -1.6446874141693115234 -1.2810716629028320313 -0.96563279628753662109 -0.67516607046127319336 -0.413410186767578125 -0.19878378510475158691 0.036232076585292816162 0.14494089782238006592 0.14043265581130981445 0.12503300607204437256 0.099677056074142456055 0.081243343651294708252 0.033240549266338348389 0.02993369661271572113 0.073004432022571563721 0.031962882727384567261 -0.061293549835681915283 0.018918607383966445923 0.044659901410341262817 0.10286126285791397095 0.16929025948047637939 0.16016565263271331787 0.1816845238208770752 0.13875718414783477783 0.12472797930240631104 0.13193887472152709961 0.16959199309349060059 0.22359420359134674072 0.203569754958152771 0.15451797842979431152 0.035508878529071807861 -0.11959517002105712891 -0.24475687742233276367 -0.40831762552261352539 -0.40288630127906799316 -0.49795258045196533203 -0.55993580818176269531 -0.48004621267318725586 -0.50941789150238037109 -0.40607789158821105957 -0.51055902242660522461 -0.46228379011154174805 -0.30605620145797729492 -0.4214197993278503418 -0.28834778070449829102 -0.42124834656715393066 -0.30821344256401062012 -0.29650664329528808594 -0.22495186328887939453 -0.025218984112143516541 0.028734344989061355591 -0.010342632420361042023 0.086497493088245391846 0.18531444668769836426 0.2840811610221862793 0.1052532196044921875 0.15063202381134033203 0.19554239511489868164 0.19433362782001495361 0.32809591293334960938 0.35454526543617248535 -9999 -9999 -9999 -9999 -9999 -9999 -9999 -9999 -9999 -9999 -9999 -9999 -9999 -9999 -9999 -9999 -9999 -9999 -9999 -9999 -9999 -9999 -9999 -9999 -9999 -9999 -9999 -9999 -9999 -9999 -9999 -9999 -9999 -9999
-9999 -9999 -9999 -9999 -9999 -9999 -9999 -9999 -9999 -9999 -9999 -9999 -9999 -9999 -9999 -9999 -9999 -9999 2.5 2.5 2.5 2.5 2.5 2.5 2.5 2.5 2.5 2.5 2.5 2.5 2.5 2.5 2.5 2.5 2.5 2.5 2.5 2.5 2.5 2.5 2.5 2.5 2.5 2.5 2.5 2.5 2.5 2.5 2.5 2.5 2.5 2.5 2.5 2.5 2.5 2.5 2.5 2.4797017574310302734 2.422687530517578125 2.3597927093505859375 2.3009200096130371094 2.16478729248046875 2.080532073974609375 1.9934592247009277344 2.0211780071258544922 1.9619888067245483398 2.0688741207122802734 2.0427296161651611328 1.9571624994277954102 1.9057081937789916992 1.8121074438095092773 1.8881702423095703125 1.7301347255706787109 1.6694277524948120117 1.5872640609741210938 1.3482422828674316406 1.2976636886596679688 1.09835052490234375 0.9171237945556640625 0.83281999826431274414 0.47178888320922851563 0.28447428345680236816 0.13367724418640136719 -0.0021830457262694835663 -0.23215927183628082275 -0.42156332731246948242 -0.59931957721710205078 -0.79305040836334228516 -1.0206845998764038086 -1.3813452720642089844 -1.7329502105712890625 -1.9972356557846069336 -2.0362772941589355469 -2.2029752731323242188 -2.4194011688232421875 -2.4758303165435791016 -2.5287449359893798828 -2.5405404567718505859 -2.5405404567718505859 -2.5405404567718505859 -2.5405404567718505859 -2.5405404567718505859 -2.5405404567718505859 -2.5405404567718505859 -2.5405404567718505859 -2.5405404567718505859 -2.2260732650756835938 -1.8505880832672119141 -1.5136201381683349609 -1.2337919473648071289 -0.93200033903121948242 -0.70265352725982666016 -0.44863334298133850098 -0.21495026350021362305 -0.037461016327142715454 0.13265176117420196533 0.10816528648138046265 0.084246970713138580322 0.050923038274049758911 0.018742846325039863586 0.016307583078742027283 0.064218409359455108643 -0.03615169227123260498 -0.065667338669300079346 -0.013480495661497116089 0.017922360450029373169 0.080395549535751342773 0.14097130298614501953 0.12990744411945343018 0.13317623734474182129 0.10049871355295181274 0.077394202351570129395 0.10668413341045379639 0.14344444870948791504 0.20350007712841033936 0.18683853745460510254 0.079106360673904418945 -0.078429214656352996826 -0.20364527404308319092 -0.42455527186393737793 -0.49011602997779846191 -0.47348028421401977539 -0.52847462892532348633 -0.61102735996246337891 -0.58514291048049926758 -0.56088626384735107422 -0.52764779329299926758 -0.61186957359313964844 -0.49179995059967041016 -0.48068657517433166504 -0.48095980286598205566 -0.42896577715873718262 -0.45968422293663024902 -0.36393553018569946289 -0.39117857813835144043 -0.20493623614311218262 -0.054691772907972335815 -0.11977207660675048828 -0.063948243856430053711 0.034868706017732620239 0.13368564844131469727 0.059214051812887191772 -0.0085008470341563224792 0.10025101155042648315 0.046015340834856033325 0.19863754510879516602 0.18064929544925689697 0.2088384777307510376 0.31262373924255371094 0.36372876167297363281 -9999 -9999 -9999 -9999 -9999 -9999 -9999 -9999 -9999 -9999 -9999 -9999 -9999 -9999 -9999 -9999 -9999 -9999 -9999 -9999 -9999 -9999 -9999 -9999 -9999 -9999 -9999 -9999 -9999 -9999 -9999 -9999
-9999 -9999 -9999 -9999 -9999 -9999 -9999 -9999 -9999 -9999 -9999 -9999 -9999 -9999 -9999 -9999 -9999 1.3748613595962524414 2.5 2.5 2.5 2.5 2.5 2.5 2.5 2.5 2.5 2.5 2.5 2.5 2.5 2.5 2.5 2.5 2.5 2.5 2.5 2.5 2.5 2.5 2.5 2.5 2.5 2.5 2.5 2.5 2.5 2.5 2.5 2.5 2.5 2.5 2.5 2.5 2.5 2.5 2.5 2.5 2.5 2.4897985458374023438 2.4102373123168945313 2.3306019306182861328 2.2481176853179931641 2.1687417030334472656 2.167926788330078125 2.21630859375 2.1840422153472900391 2.1145160198211669922 2.0596988201141357422 1.9770313501358032227 2.024658203125 1.9075380563735961914 1.8406606912612915039 1.7557353973388671875 1.5492664575576782227 1.4966883659362792969 1.3613307476043701172 1.1551115512847900391 1.0718001127243041992 0.75008630752563476563 0.59115654230117797852 0.44181546568870544434 0.30210724472999572754 0.087964028120040893555 -0.083594039082527160645 -0.24997945129871368408 -0.42741644382476806641 -0.66075128316879272461 -0.9833405613899230957 -1.3046587705612182617 -1.5836749076843261719 -1.7796182632446289063 -2.1941208839416503906 -2.3254427909851074219 -2.3331217765808105469 -2.4068346023559570313 -2.4865651130676269531 -2.5405404567718505859 -2.5405404567718505859 -2.5405404567718505859 -2.5405404567718505859 -2.5405404567718505859 -2.5405404567718505859 -2.5405404567718505859 -2.5405404567718505859 -2.5405404567718505859 -2.4236524105072021484 -2.06160736083984375 -1.7605680227279663086 -1.4505904912948608398 -1.1792802810668945313 -0.93349874019622802734 -0.68125814199447631836 -0.48154342174530029297 -0.27550649642944335938 -0.11767618358135223389 -0.0071145892143249511719 0.066938377916812896729 0.020602725446224212646 0.00424514012411236763 0.002681471407413482666 0.055432379245758056641 -0.10426627099514007568 -0.070041120052337646484 -0.045879598706960678101 -0.008815179578959941864 0.0579298362135887146 0.11265234649181365967 0.099649228155612945557 0.078275702893733978271 0.058538034558296203613 0.049713820219039916992 0.081783175468444824219 0.1237640082836151123 0.15107847750186920166 0.16217340528964996338 0.047713227570056915283 -0.16564075648784637451 -0.26295524835586547852 -0.55824440717697143555 -0.56888043880462646484 -0.55831241607666015625 -0.66433429718017578125 -0.66538518667221069336 -0.66362017393112182617 -0.5930754542350769043 -0.69101405143737792969 -0.67183625698089599609 -0.53470593690872192383 -0.65087032318115234375 -0.50397771596908569336 -0.59464728832244873047 -0.48366022109985351563 -0.48852169513702392578 -0.38733303546905517578 -0.19145122170448303223 -0.21198971569538116455 -0.21439397335052490234 -0.11557702720165252686 -0.016760081052780151367 0.013174878433346748352 -0.1676337122917175293 -0.011925809085369110107 -0.065162591636180877686 0.057256028056144714355 0.09905739128589630127 0.081715188920497894287 0.18389104306697845459 0.29192930459976196289 0.20505738258361816406 0.19486795365810394287 0.37291225790977478027 -9999 -9999 -9999 -9999 -9999 -9999 -9999 -9999 -9999 -9999 -9999 -9999 -9999 -9999 -9999 -9999 -9999 -9999 -9999 -9999 -9999 -9999 -9999 -9999 -9999 -9999 -9999 -9999 -9999 -9999
-9999 -9999 -9999 -9999 -9999 -9999 -9999 -9999 -9999 -9999 -9999 -9999 -9999 -9999 -9999 -9999 -9999 2.5 2.5 2.5 2.5 2.5 2.5 2.5 2.5 2.5 2.5 2.5 2.5 2.5 2.5 2.5 2.5 2.5 2.5 2.5 2.5 2.5 2.5 2.5 2.5 2.5 2.5 2.5 2.5 2.5 2.5 2.5 2.5 2.5 2.5 2.5 2.5 2.5 2.5 2.5 2.5 2.5 2.5 2.5 2.5 2.5 2.4234004020690917969 2.3738651275634765625 2.3637433052062988281 2.3253545761108398438 2.2803881168365478516 2.2136895656585693359 2.1419553756713867188 2.1611464023590087891 2.0884213447570800781 2.0012381076812744141 1.924206852912902832 1.7502907514572143555 1.6947166919708251953 1.6243110895156860352 1.3925341367721557617 1.3107800483703613281 1.0283837318420410156 0.89783883094787597656 0.74594521522521972656 0.60639750957489013672 0.40808734297752380371 0.25437524914741516113 0.09936065971851348877 -0.073337540030479431152 -0.30081802606582641602 -0.58533579111099243164 -0.87636739015579223633 -1.1590878963470458984 -1.3218221664428710938 -1.8556040525436401367 -2.1581079959869384766 -2.2045490741729736328 -2.2830288410186767578 -2.3631806373596191406 -2.4354043006896972656 -2.5240926742553710938 -2.5405404567718505859 -2.5405404567718505859 -2.5405404567718505859 -2.5405404567718505859 -2.5405404567718505859 -2.5405404567718505859 -2.5405404567718505859 -2.5405404567718505859 -2.5405404567718505859 -2.2688035964965820313 -1.9691807031631469727 -1.6559070348739624023 -1.396950840950012207 -1.1475659608840942383 -0.9082126617431640625 -0.68826693296432495117 -0.50355350971221923828 -0.38174852728843688965 -0.23581807315349578857 -0.14445875585079193115 -0.11696921288967132568 -0.053174067288637161255 -0.010944641195237636566 0.046646352857351303101 -0.17238084971904754639 -0.074414901435375213623 -0.078278705477714538574 -0.035552721470594406128 0.035464126616716384888 0.084333397448062896729 0.069391012191772460938 0.023375175893306732178 0.016577353700995445251 0.02203343808650970459 0.056882224977016448975 0.11255571246147155762 0.13431997597217559814 0.086761787533760070801 -0.066224865615367889404 -0.24865658581256866455 -0.39852344989776611328 -0.63866472244262695313 -0.6405627131462097168 -0.68327236175537109375 -0.79850220680236816406 -0.72036206722259521484 -0.72473007440567016602 -0.68616861104965209961 -0.80511957406997680664 -0.70354241132736206055 -0.70937305688858032227 -0.69507753849029541016 -0.66881978511810302734 -0.63003718852996826172 -0.55595058202743530273 -0.56321924924850463867 -0.36938771605491638184 -0.29168862104415893555 -0.32758402824401855469 -0.26602277159690856934 -0.167205810546875 -0.070005007088184356689 -0.2537028193473815918 -0.16543938219547271729 -0.16045399010181427002 -0.084125496447086334229 0.017465485259890556335 -0.039234671741724014282 0.056153435260057449341 0.1631965935230255127 0.12005779147148132324 0.093270525336265563965 0.1399307548999786377 0.21442733705043792725 0.2504177093505859375 0.38209575414657592773 -9999 -9999 -9999 -9999 -9999 -9999 -9999 -9999 -9999 -9999 -9999 -9999 -9999 -9999 -9999 -9999 -9999 -9999 -9999 -9999 -9999 -9999 -9999 -9999 -9999 -9999 -9999 -9999
-9999 -9999 -9999 -9999 -9999 -9999 -9999 -9999 -9999 -9999 -9999 -9999 -9999 -9999 -9999 -9999 1.6660134792327880859 2.5 2.5 2.5 2.5 2.5 2.5 2.5 2.5 2.5 2.5 2.5 2.5 2.5 2.5 2.5 2.5 2.5 2.5 2.5 2.5 2.5 2.5 2.5 2.5 2.5 2.5 2.5 2.5 2.5 2.5 2.5 2.5 2.5 2.5 2.5 2.5 2.5 2.5 2.5 2.5 2.5 2.5 2.5 2.5 2.5 2.5 2.5 2.46666717529296875 2.4226205348968505859 2.3676800727844238281 2.3068792819976806641 2.297634124755859375 2.2550914287567138672 2.1618154048919677734 2.092678070068359375 1.9513150453567504883 1.8923218250274658203 1.8327025175094604492 1.6299567222595214844 1.5497602224349975586 1.3224978446960449219 1.20452117919921875 1.0426733493804931641 0.91068780422210693359 0.72821062803268432617 0.59234452247619628906 0.44870075583457946777 0.27116146683692932129 0.059115245938301086426 -0.18733100593090057373 -0.44807600975036621094 -0.73450094461441040039 -0.89846283197402954102 -1.3654932975769042969 -1.6682283878326416016 -1.9140589237213134766 -2.1585829257965087891 -2.2246654033660888672 -2.2944805622100830078 -2.4022390842437744141 -2.4993996620178222656 -2.5405404567718505859 -2.5405404567718505859 -2.5405404567718505859 -2.5405404567718505859 -2.5405404567718505859 -2.5405404567718505859 -2.5405404567718505859 -2.5405404567718505859 -2.5405404567718505859 -2.4474322795867919922 -2.1325337886810302734 -1.8513493537902832031 -1.6136412620544433594 -1.3348910808563232422 -1.1010272502899169922 -0.88943088054656982422 -0.75638246536254882813 -0.56527006626129150391 -0.46313124895095825195 -0.39269888401031494141 -0.36791348457336425781 -0.3168608546257019043 -0.27272203564643859863 -0.18700504302978515625 -0.37313544750213623047 -0.23191286623477935791 -0.21256360411643981934 -0.13312873244285583496 -0.024890478700399398804 0.053387865424156188965 0.039413738995790481567 -0.031289048492908477783 -0.025383323431015014648 -0.0056469435803592205048 0.03198127448558807373 0.10134741663932800293 0.11756145954132080078 0.011350170709192752838 -0.18016296625137329102 -0.33270671963691711426 -0.57832187414169311523 -0.72046315670013427734 -0.71115672588348388672 -0.76282221078872680664 -0.85072410106658935547 -0.81782245635986328125 -0.77682220935821533203 -0.86012500524520874023 -0.86726605892181396484 -0.76335567235946655273 -0.87938129901885986328 -0.71960759162902832031 -0.76804625988006591797 -0.6688124537467956543 -0.66993576288223266602 -0.54971420764923095703 -0.4029928743839263916 -0.43734630942344665527 -0.41646850109100341797 -0.31765154004096984863 -0.21898567676544189453 -0.30435144901275634766 -0.3245722353458404541 -0.25574538111686706543 -0.22876976430416107178 -0.087567880749702453613 -0.12998111546039581299 -0.070969849824905395508 0.034463889896869659424 0.035058200359344482422 -0.0083268955349922180176 0.031113341450691223145 0.10791184008121490479 0.1614745408296585083 0.19650954008102416992 0.24403612315654754639 0.34608155488967895508 0.3912792205810546875 -9999 -9999 -9999 -9999 -9999 -9999 -9999 -9999 -9999 -9999 -9999 -9999 -9999 -9999 -9999 -9999 -9999 -9999 -9999 -9999 -9999 -9999 -9999 -9999 -9999 -9999
-9999 -9999 -9999 -9999 -9999 -9999 -9999 -9999 -9999 -9999 -9999 -9999 -9999 -9999 -9999 -9999 2.5 2.5 2.5 2.5 2.5 2.5 2.5 2.5 2.5 2.5 2.5 2.5 2.5 2.5 2.5 2.5 2.5 2.5 2.5 2.5 2.5 2.5 2.5 2.5 2.5 2.5 2.5 2.5 2.5 2.5 2.5 2.5 2.5 2.5 2.5 2.5 2.5 2.5 2.5 2.5 2.5 2.5 2.5 2.5 2.5 2.5 2.5 2.5 2.5 2.5 2.4718031883239746094 2.4341220855712890625 2.3915793895721435547 2.3223927021026611328 2.2611494064331054688 2.1523392200469970703 2.0899267196655273438 2.0317270755767822266 1.867379307746887207 1.7887402772903442383 1.6234780550003051758 1.4982345104217529297 1.3394017219543457031 1.2149780988693237305 1.0530006885528564453 0.93031382560729980469 0.78480899333953857422 0.61566048860549926758 0.41904851794242858887 0.21067376434803009033 -0.01978459581732749939 -0.31472298502922058105 -0.4751033782958984375 -0.87538242340087890625 -1.1783487796783447266 -1.3984400033950805664 -1.7221971750259399414 -2.0121703147888183594 -2.1923758983612060547 -2.3463656902313232422 -2.4072375297546386719 -2.4418547153472900391 -2.5231571197509765625 -2.5405404567718505859 -2.5405404567718505859 -2.5405404567718505859 -2.5405404567718505859 -2.5405404567718505859 -2.5405404567718505859 -2.5405404567718505859 -2.5405404567718505859 -2.5405404567718505859 -2.3057477474212646484 -2.0403106212615966797 -1.7615753412246704102 -1.5137877464294433594 -1.2792727947235107422 -1.1310163736343383789 -0.91901707649230957031 -0.80355715751647949219 -0.68016511201858520508 -0.64133441448211669922 -0.61885780096054077148 -0.58052963018417358398 -0.55482900142669677734 -0.48937979340553283691 -0.66016209125518798828 -0.53522849082946777344 -0.52057731151580810547 -0.44908508658409118652 -0.35138475894927978516 -0.27856659889221191406 -0.25966629385948181152 -0.2643826603889465332 -0.1965401768684387207 -0.10423024743795394897 0.011892937123775482178 0.081828691065311431885 0.094417214393615722656 -0.058310307562351226807 -0.2941010594367980957 -0.41675680875778198242 -0.75812029838562011719 -0.80226159095764160156 -0.78175067901611328125 -0.89868187904357910156 -0.90570104122161865234 -0.87893235683441162109 -0.84468942880630493164 -0.99836963415145874023 -0.91375023126602172852 -0.93802279233932495117 -0.90919536352157592773 -0.89491939544677734375 -0.80039018392562866211 -0.74796569347381591797 -0.73351550102233886719 -0.5397523045539855957 -0.53241270780563354492 -0.53572410345077514648 -0.46809726953506469727 -0.36928033828735351563 -0.35039061307907104492 -0.48370510339736938477 -0.36488044261932373047 -0.4023151695728302002 -0.22120310366153717041 -0.21157301962375640869 -0.19809314608573913574 -0.094268806278705596924 -0.049941387027502059937 -0.12412182241678237915 -0.072849571704864501953 0.001396348932757973671 0.072531357407569885254 0.11091934144496917725 0.14446197450160980225 0.24427311122417449951 0.33181399106979370117 0.38179877400398254395 0.41048842668533325195 0.40046271681785583496 -9999 -9999 -9999 -9999 -9999 -9999 -9999 -9999 -9999 -9999 -9999 -9999 -9999 -9999 -9999 -9999 -9999 -9999 -9999 -9999 -9999 -9999 -9999 -9999
-9999 -9999 -9999 -9999 -9999 -9999 -9999 -9999 -9999 -9999 -9999 -9999 -9999 -9999 -9999 1.9571655988693237305 2.5 2.5 2.5 2.5 2.5 2.5 2.5 2.5 2.5 2.5 2.5 2.5 2.5 2.5 2.5 2.5 2.5 2.5 2.5 2.5 2.5 2.5 2.5 2.5 2.5 2.5 2.5 2.5 2.5 2.5 2.5 2.5 2.5 2.5 2.5 2.5 2.5 2.5 2.5 2.5 2.5 2.5 2.5 2.5 2.5 2.5 2.5 2.5 2.5 2.5 2.5 2.5 2.4829699993133544922 2.4296209812164306641 2.3533635139465332031 2.2907049655914306641 2.2307517528533935547 2.1048018932342529297 2.0277202129364013672 1.9244583845138549805 1.7765319347381591797 1.6361298561096191406 1.5192683935165405273 1.3806289434432983398 1.2682831287384033203 1.1173328161239624023 0.96015948057174682617 0.78283846378326416016 0.60867857933044433594 0.40039941668510437012 0.1043620184063911438 -0.051608894020318984985 -0.38527163863182067871 -0.68846917152404785156 -0.88672018051147460938 -1.2077604532241821289 -1.4762505292892456055 -1.8533612489700317383 -2.2449128627777099609 -2.2611751556396484375 -2.3185377120971679688 -2.4388222694396972656 -2.4986236095428466797 -2.5405404567718505859 -2.5405404567718505859 -2.5405404567718505859 -2.5405404567718505859 -2.5405404567718505859 -2.5405404567718505859 -2.5405404567718505859 -2.5405404567718505859 -2.5405404567718505859 -2.4669797420501708984 -2.1882596015930175781 -1.9265482425689697266 -1.6820337772369384766 -1.5056502819061279297 -1.2859582901000976563 -1.1330091953277587891 -1.0094306468963623047 -0.92036014795303344727 -0.89151179790496826172 -0.86980205774307250977 -0.84419840574264526367 -0.83693599700927734375 -0.79256767034530639648 -0.94670164585113525391 -0.83854407072067260742 -0.8285910487174987793 -0.76504141092300415039 -0.67787903547286987305 -0.61245745420455932617 -0.59743916988372802734 -0.59184396266937255859 -0.52860176563262939453 -0.44344466924667358398 -0.33066102862358093262 -0.18868559598922729492 -0.12616774439811706543 -0.22027879953384399414 -0.3777180016040802002 -0.55229008197784423828 -0.86901181936264038086 -0.87823915481567382813 -0.86859220266342163086 -1.0345414876937866211 -0.96067792177200317383 -0.94004219770431518555 -1.0186457633972167969 -1.0605161190032958984 -0.99200540781021118164 -1.0934989452362060547 -0.93523746728897094727 -0.94144517183303833008 -0.85396468639373779297 -0.84197640419006347656 -0.71355646848678588867 -0.61453449726104736328 -0.64513069391250610352 -0.61854302883148193359 -0.51972609758377075195 -0.42409116029739379883 -0.57719576358795166016 -0.48867779970169067383 -0.51645034551620483398 -0.36258462071418762207 -0.29316493868827819824 -0.32137313485145568848 -0.2230015099048614502 -0.14564265310764312744 -0.24406604468822479248 -0.17444698512554168701 -0.10511913895606994629 -0.016411822289228439331 0.022098440676927566528 0.057896230369806289673 0.1424646526575088501 0.24266463518142700195 0.30244565010070800781 0.33494970202445983887 0.36123389005661010742 0.38411781191825866699 0.38570284843444824219 -9999 -9999 -9999 -9999 -9999 -9999 -9999 -9999 -9999 -9999 -9999 -9999 -9999 -9999 -9999 -9999 -9999 -9999 -9999 -9999 -9999 -9999 -9999
-9999 -9999 -9999 -9999 -9999 -9999 -9999 -9999 -9999 -9999 -9999 -9999 -9999 -9999 -9999 2.5 2.5 2.5 2.5 2.5 2.5 2.5 2.5 2.5 2.5 2.5 2.5 2.5 2.5 2.5 2.5 2.5 2.5 2.5 2.5 2.5 2.5 2.5 2.5 2.5 2.5 2.5 2.5 2.5 2.5 2.5 2.5 2.5 2.5 2.5 2.5 2.5 2.5 2.5 2.5 2.5 2.5 2.5 2.5 2.5 2.5 2.5 2.5 2.5 2.5 2.5 2.5 2.5 2.5 2.5 2.4917292594909667969 2.4297764301300048828 2.3422245979309082031 2.2667005062103271484 2.1922113895416259766 2.0548293590545654297 1.9328581094741821289 1.8235585689544677734 1.7082570791244506836 1.5887993574142456055 1.4498565196990966797 1.3046585321426391602 1.1484724283218383789 1.006683349609375 0.78886300325393676758 0.5234470367431640625 0.37297809123992919922 0.1048391684889793396 -0.19858953356742858887 -0.39868772029876708984 -0.69214147329330444336 -0.94033080339431762695 -1.2673008441925048828 -1.6838221549987792969 -1.9894564151763916016 -2.2491321563720703125 -2.3542232513427734375 -2.4214527606964111328 -2.4789178371429443359 -2.5184128284454345703 -2.5405404567718505859 -2.5405404567718505859 -2.5405404567718505859 -2.5405404567718505859 -2.5405404567718505859 -2.5405404567718505859 -2.5405404567718505859 -2.5405404567718505859 -2.5405404567718505859 -2.3393085002899169922 -2.0847947597503662109 -1.8802843093872070313 -1.6585202217102050781 -1.4700336456298828125 -1.3485903739929199219 -1.2280552387237548828 -1.1688158512115478516 -1.1593453884124755859 -1.1416864395141601563 -1.123172760009765625 -1.1190429925918579102 -1.095755457878112793 -1.23255157470703125 -1.1416193246841430664 -1.1364167928695678711 -1.0809978246688842773 -1.0043733119964599609 -0.94634830951690673828 -0.93521207571029663086 -0.91930520534515380859 -0.86066335439682006836 -0.78265905380249023438 -0.67321503162384033203 -0.55138450860977172852 -0.51409178972244262695 -0.60177361965179443359 -0.71470046043395996094 -0.87638252973556518555 -1.0255095958709716797 -0.96639049053192138672 -0.99716973304748535156 -1.0910400152206420898 -1.0331345796585083008 -1.0032101869583129883 -1.1858601570129394531 -1.1226625442504882813 -1.1666724681854248047 -1.1233130693435668945 -1.0683183670043945313 -0.97648292779922485352 -0.93998074531555175781 -0.89589667320251464844 -0.75129395723342895508 -0.75492054224014282227 -0.74386423826217651367 -0.67017179727554321289 -0.57307183742523193359 -0.66135257482528686523 -0.64064365625381469727 -0.61174178123474121094 -0.50396615266799926758 -0.3942553102970123291 -0.43072488903999328613 -0.35077819228172302246 -0.25069200992584228516 -0.32906562089920043945 -0.27604442834854125977 -0.21163463592529296875 -0.115251198410987854 -0.076163411140441894531 -0.027693973854184150696 0.040656197816133499146 0.15351529419422149658 0.22309252619743347168 0.25137460231781005859 0.28569516539573669434 0.32354637980461120605 0.27411499619483947754 0.33481463789939880371 0.33587205410003662109 0.38926592469215393066 -9999 -9999 -9999 -9999 -9999 -9999 -9999 -9999 -9999 -9999 -9999 -9999 -9999 -9999 -9999 -9999 -9999 -9999 -9999 -9999 -9999
-9999 -9999 -9999 -9999 -9999 -9999 -9999 -9999 -9999 -9999 -9999 -9999 -9999 -9999 2.248317718505859375 2.5 2.5 2.5 2.5 2.5 2.5 2.5 2.5 2.5 2.5 2.5 2.5 2.5 2.5 2.5 2.5 2.5 2.5 2.5 2.5 2.5 2.5 2.5 2.5 2.5 2.5 2.5 2.5 2.5 2.5 2.5 2.5 2.5 2.5 2.5 2.5 2.5 2.5 2.5 2.5 2.5 2.5 2.5 2.5 2.5 2.5 2.5 2.5 2.5 2.5 2.5 2.5 2.5 2.5 2.5 2.5 2.5 2.5 2.4311914443969726563 2.3331267833709716797 2.2295863628387451172 2.1278488636016845703 2.0330028533935546875 1.9089227914810180664 1.7823803424835205078 1.6491575241088867188 1.5141063928604125977 1.3866586685180664063 1.1773265600204467773 0.94253200292587280273 0.79756504297256469727 0.59494996070861816406 0.28456205129623413086 0.089344710111618041992 -0.17652259767055511475 -0.40441110730171203613 -0.68124032020568847656 -1.086544036865234375 -1.3842140436172485352 -1.8020770549774169922 -2.2735245227813720703 -2.3542790412902832031 -2.3659334182739257813 -2.3751785755157470703 -2.4689157009124755859 -2.5405404567718505859 -2.5405404567718505859 -2.5405404567718505859 -2.5405404567718505859 -2.5405404567718505859 -2.5405404567718505859 -2.5405404567718505859 -2.5405404567718505859 -2.5405404567718505859 -2.4875557422637939453 -2.2549180984497070313 -2.0310821533203125 -1.8330816030502319336 -1.6928886175155639648 -1.5575467348098754883 -1.4483131170272827148 -1.4189931154251098633 -1.4330962896347045898 -1.426876068115234375 -1.4193247556686401367 -1.4011499881744384766 -1.3989434242248535156 -1.5184016227722167969 -1.4446177482604980469 -1.4435620307922363281 -1.3962028026580810547 -1.3305739164352416992 -1.2802333831787109375 -1.2729849815368652344 -1.2467664480209350586 -1.1927249431610107422 -1.1218734979629516602 -1.0157690048217773438 -0.91408342123031616211 -0.90201580524444580078 -0.98326843976974487305 -1.0717306137084960938 -1.2756158113479614258 -1.299877166748046875 -1.2251870632171630859 -1.2767567634582519531 -1.2137221097946166992 -1.1028196811676025391 -1.1771665811538696289 -1.2537660598754882813 -1.2206550836563110352 -1.3076168298721313477 -1.1508673429489135742 -1.1148440837860107422 -1.0391168594360351563 -1.0140169858932495117 -0.88805341720581054688 -0.85283565521240234375 -0.85296547412872314453 -0.82061755657196044922 -0.72205251455307006836 -0.71395611763000488281 -0.79977649450302124023 -0.7178351283073425293 -0.67710024118423461914 -0.50828343629837036133 -0.5222034454345703125 -0.4779014885425567627 -0.37242865562438964844 -0.41406521201133728027 -0.37764182686805725098 -0.32024452090263366699 -0.23774577677249908447 -0.16510659456253051758 -0.11328417807817459106 -0.061152260750532150269 0.062837168574333190918 0.13763882219791412354 0.17202146351337432861 0.2101564258337020874 0.26297494769096374512 0.16252717375755310059 0.19094493985176086426 0.26673465967178344727 0.31352832913398742676 0.35035625100135803223 0.36486038565635681152 0.42119932174682617188 -9999 -9999 -9999 -9999 -9999 -9999 -9999 -9999 -9999 -9999 -9999 -9999 -9999 -9999 -9999 -9999 -9999 -9999 -9999
-9999 -9999 -9999 -9999 -9999 -9999 -9999 -9999 -9999 -9999 -9999 -9999 -9999 0.44953641295433044434 2.5 2.5 2.5 2.5 2.5 2.5 2.5 2.5 2.5 2.5 2.5 2.5 2.5 2.5 2.5 2.5 2.5 2.5 2.5 2.5 2.5 2.5 2.5 2.5 2.5 2.5 2.5 2.5 2.5 2.5 2.5 2.5 2.5 2.5 2.5 2.5 2.5 2.5 2.5 2.5 2.5 2.5 2.5 2.5 2.5 2.5 2.5 2.5 2.5 2.5 2.5 2.5 2.5 2.5 2.5 2.5 2.5 2.5 2.5 2.5 2.5 2.4321391582489013672 2.3372931480407714844 2.2290461063385009766 2.1149039268493652344 1.9936566352844238281 1.8797403573989868164 1.7465920448303222656 1.5657901763916015625 1.361616969108581543 1.2221519947052001953 1.0850608348846435547 0.76249241828918457031 0.57737714052200317383 0.33909630775451660156 0.13150860369205474854 -0.095179788768291473389 -0.50360780954360961914 -0.77897185087203979492 -1.1423115730285644531 -1.5623089075088500977 -2.0031168460845947266 -2.1816570758819580078 -2.2760653495788574219 -2.524852752685546875 -2.5316660404205322266 -2.5039772987365722656 -2.5405404567718505859 -2.5405404567718505859 -2.5405404567718505859 -2.5405404567718505859 -2.5405404567718505859 -2.5405404567718505859 -2.5405404567718505859 -2.5405404567718505859 -2.5405404567718505859 -2.4036440849304199219 -2.1961295604705810547 -2.0302002429962158203 -1.889751434326171875 -1.7759451866149902344 -1.6962970495223999023 -1.6691704988479614258 -1.6883625984191894531 -1.6965231895446777344 -1.7154767513275146484 -1.6929091215133666992 -1.7021312713623046875 -1.804251551628112793 -1.7476162910461425781 -1.7507072687149047852 -1.711170196533203125 -1.6562700271606445313 -1.6139086484909057617 -1.6107158660888671875 -1.5742278099060058594 -1.5247864723205566406 -1.4610879421234130859 -1.3583229780197143555 -1.2767823934555053711 -1.2899397611618041992 -1.3647632598876953125 -1.404399871826171875 -1.6144753694534301758 -1.5704281330108642578 -1.4934601783752441406 -1.5595757961273193359 -1.4341431856155395508 -1.3349016904830932617 -1.4488126039505004883 -1.3328572511672973633 -1.3953223228454589844 -1.3374309539794921875 -1.2417173385620117188 -1.1616350412368774414 -1.1207336187362670898 -1.0582778453826904297 -0.96283560991287231445 -0.96270489692687988281 -0.95200431346893310547 -0.87224632501602172852 -0.77817732095718383789 -0.90068876743316650391 -0.84163242578506469727 -0.85064566135406494141 -0.64104372262954711914 -0.6037953495979309082 -0.60351157188415527344 -0.50116139650344848633 -0.49906480312347412109 -0.49241325259208679199 -0.43252912163734436035 -0.35016906261444091797 -0.25404977798461914063 -0.19887438416481018066 -0.16130800545215606689 -0.053924873471260070801 0.048489481210708618164 0.092668332159519195557 0.13461771607398986816 0.20240353047847747803 0.19258941709995269775 0.079357102513313293457 0.19759723544120788574 0.23779073357582092285 0.28710588812828063965 0.28996112942695617676 0.35182428359985351563 0.37890151143074035645 0.41832172870635986328 0.47988846898078918457 -9999 -9999 -9999 -9999 -9999 -9999 -9999 -9999 -9999 -9999 -9999 -9999 -9999 -9999 -9999 -9999 -9999
-9999 -9999 -9999 -9999 -9999 -9999 -9999 -9999 -9999 -9999 -9999 -9999 -9999 2.5 2.5 2.5 2.5 2.5 2.5 2.5 2.5 2.5 2.5 2.5 2.5 2.5 2.5 2.5 2.5 2.5 2.5 2.5 2.5 2.5 2.5 2.5 2.5 2.5 2.5 2.5 2.5 2.5 2.5 2.5 2.5 2.5 2.5 2.5 2.5 2.5 2.5 2.5 2.5 2.5 2.5 2.5 2.5 2.5 2.5 2.5 2.5 2.5 2.5 2.5 2.5 2.5 2.5 2.5 2.5 2.5 2.5 2.5 2.5 2.5 2.5 2.5 2.5 2.4474277496337890625 2.3381555080413818359 2.2307767868041992188 2.1065251827239990234 1.9542537927627563477 1.7807019948959350586 1.6467390060424804688 1.5129686594009399414 1.2404228448867797852 1.065409541130065918 0.85471522808074951172 0.6674283146858215332 0.44425821304321289063 0.079328365623950958252 -0.17372961342334747314 -0.48254606127738952637 -0.85109335184097290039 -1.2777361869812011719 -1.5839914083480834961 -2.2493596076965332031 -2.4973649978637695313 -2.3021140098571777344 -2.3205893039703369141 -2.4446134567260742188 -2.5405404567718505859 -2.5405404567718505859 -2.5405404567718505859 -2.5405404567718505859 -2.5405404567718505859 -2.5405404567718505859 -2.5405404567718505859 -2.5405404567718505859 -2.5405404567718505859 -2.5405404567718505859 -2.3840982913970947266 -2.2340495586395263672 -2.1056628227233886719 -1.9962031841278076172 -1.9464745521545410156 -1.9263861179351806641 -1.9450091123580932617 -1.9612658023834228516 -2.0116286277770996094 -1.9935430288314819336 -2.0053191184997558594 -2.0901017189025878906 -2.0506148338317871094 -2.0578525066375732422 -2.0261375904083251953 -1.9819661378860473633 -1.9475839138031005859 -1.9439769983291625977 -1.913565516471862793 -1.8705431222915649414 -1.8124806880950927734 -1.7197614908218383789 -1.6489632129669189453 -1.6652814149856567383 -1.7361303567886352539 -1.7474788427352905273 -1.8857631683349609375 -1.8320947885513305664 -1.8193567991256713867 -1.7763861417770385742 -1.6661833524703979492 -1.6691930294036865234 -1.6438846588134765625 -1.5713042020797729492 -1.5847128629684448242 -1.3797076940536499023 -1.2882430553436279297 -1.2242691516876220703 -1.1860576868057250977 -1.0995949506759643555 -1.0724947452545166016 -1.0611056089401245117 -1.0226920843124389648 -0.92715799808502197266 -0.98484551906585693359 -0.96542978286743164063 -0.96773815155029296875 -0.78242528438568115234 -0.70094275474548339844 -0.71286332607269287109 -0.62989407777786254883 -0.59415161609649658203 -0.62444955110549926758 -0.54376196861267089844 -0.45668452978134155273 -0.34299296140670776367 -0.28712350130081176758 -0.24945117533206939697 -0.16272373497486114502 -0.040659859776496887207 0.013315203599631786346 0.059078987687826156616 0.10377494245767593384 0.15201404690742492676 -0.032230723649263381958 0.12845981121063232422 0.16205315291881561279 0.21933674812316894531 0.22671076655387878418 0.28244921565055847168 0.32446497678756713867 0.35328283905982971191 0.42617964744567871094 0.43959099054336547852 0.47114714980125427246 0.49262750148773193359 -9999 -9999 -9999 -9999 -9999 -9999 -9999 -9999 -9999 -9999 -9999 -9999 -9999 -9999 -9999
-9999 -9999 -9999 -9999 -9999 -9999 -9999 -9999 -9999 -9999 -9999 -9999 0.74068850278854370117 2.5 2.5 2.5 2.5 2.5 2.5 2.5 2.5 2.5 2.5 2.5 2.5 2.5 2.5 2.5 2.5 2.5 2.5 2.5 2.5 2.5 2.5 2.5 2.5 2.5 2.5 2.5 2.5 2.5 2.5 2.5 2.5 2.5 2.5 2.5 2.5 2.5 2.5 2.5 2.5 2.5 2.5 2.5 2.5 2.5 2.5 2.5 2.5 2.5 2.5 2.5 2.5 2.5 2.5 2.5 2.5 2.5 2.5 2.5 2.5 2.5 2.5 2.5 2.5 2.5 2.5 2.4664585590362548828 2.3427174091339111328 2.1997869014739990234 2.0699360370635986328 1.9363280534744262695 1.7183531522750854492 1.5534420013427734375 1.3703341484069824219 1.1951462030410766602 0.97798037528991699219 0.6622645258903503418 0.43151265382766723633 0.17721946537494659424 -0.14235459268093109131 -0.56045347452163696289 -0.85063970088958740234 -1.5312525033950805664 -1.940192103385925293 -2.0193543434143066406 -2.1487295627593994141 -2.272319793701171875 -2.3329608440399169922 -2.4587373733520507813 -2.5405404567718505859 -2.5405404567718505859 -2.5405404567718505859 -2.5405404567718505859 -2.5405404567718505859 -2.5405404567718505859 -2.5405404567718505859 -2.5405404567718505859 -2.5405404567718505859 -2.5405404567718505859 -2.4359941482543945313 -2.3238353729248046875 -2.2239227294921875 -2.1966519355773925781 -2.2001368999481201172 -2.2301988601684570313 -2.2574179172515869141 -2.3077805042266845703 -2.2941768169403076172 -2.3085069656372070313 -2.3759515285491943359 -2.3536133766174316406 -2.3649976253509521484 -2.3411049842834472656 -2.3076622486114501953 -2.2812592983245849609 -2.2772381305694580078 -2.2536382675170898438 -2.2182874679565429688 -2.1670289039611816406 -2.0892698764801025391 -2.0272932052612304688 -2.0286376476287841797 -2.0931603908538818359 -2.1467120647430419922 -2.1601307392120361328 -2.0908913612365722656 -2.1099164485931396484 -1.9953521490097045898 -1.8977730274200439453 -1.9515877962112426758 -1.8294079303741455078 -1.8531280755996704102 -1.7065398693084716797 -1.5426456928253173828 -1.3974603414535522461 -1.292774200439453125 -1.2363544702529907227 -1.1743772029876708984 -1.1704893112182617188 -1.1601444482803344727 -1.0761387348175048828 -1.0690022706985473633 -1.1158479452133178711 -1.0707896947860717773 -0.95188540220260620117 -0.81497085094451904297 -0.82221508026123046875 -0.75770980119705200195 -0.69920098781585693359 -0.75648576021194458008 -0.64535933732986450195 -0.56320005655288696289 -0.44054931402206420898 -0.38685429096221923828 -0.33748769760131835938 -0.26453217864036560059 -0.12980920076370239258 -0.066037923097610473633 -0.028049796819686889648 0.0098244380205869674683 0.091442607343196868896 -0.1438185572624206543 0.059322394430637359619 0.076776914298534393311 0.14474272727966308594 0.1634604036808013916 0.21307419240474700928 0.2700284421443939209 0.28576558828353881836 0.36180907487869262695 0.38526451587677001953 0.41638764739036560059 0.44628670811653137207 0.4540202021598815918 0.51017540693283081055 0.53480881452560424805 -9999 -9999 -9999 -9999 -9999 -9999 -9999 -9999 -9999 -9999 -9999 -9999 -9999
-9999 -9999 -9999 -9999 -9999 -9999 -9999 -9999 -9999 -9999 -9999 -9999 2.5 2.5 2.5 2.5 2.5 2.5 2.5 2.5 2.5 2.5 2.5 2.5 2.5 2.5 2.5 2.5 2.5 2.5 2.5 2.5 2.5 2.5 2.5 2.5 2.5 2.5 2.5 2.5 2.5 2.5 2.5 2.5 2.5 2.5 2.5 2.5 2.5 2.5 2.5 2.5 2.5 2.5 2.5 2.5 2.5 2.5 2.5 2.5 2.5 2.5 2.5 2.5 2.5 2.5 2.5 2.5 2.5 2.5 2.5 2.5 2.5 2.5 2.5 2.5 2.5 2.5 2.5 2.5 2.5 2.4890210628509521484 2.3596875667572021484 2.1962835788726806641 2.0414745807647705078 1.8859529495239257813 1.7073253393173217773 1.5117026567459106445 1.2452007532119750977 1.0367548465728759766 0.83698499202728271484 0.52061063051223754883 0.15682929754257202148 -0.11728805303573608398 -0.8131453394889831543 -1.1032502651214599609 -1.3312184810638427734 -1.8426917791366577148 -1.9948391914367675781 -1.963894963264465332 -2.1567337512969970703 -2.3482527732849121094 -2.5405404567718505859 -2.5405404567718505859 -2.5405404567718505859 -2.5405404567718505859 -2.5405404567718505859 -2.5405404567718505859 -2.5405404567718505859 -2.5405404567718505859 -2.5405404567718505859 -2.5405404567718505859 -2.5405404567718505859 -2.5405404567718505859 -2.4739558696746826172 -2.4468293190002441406 -2.4738876819610595703 -2.51538848876953125 -2.553569793701171875 -2.6039323806762695313 -2.5948107242584228516 -2.6116948127746582031 -2.6618015766143798828 -2.6566119194030761719 -2.6721429824829101563 -2.6560723781585693359 -2.6333582401275634766 -2.6149344444274902344 -2.6104991436004638672 -2.5937111377716064453 -2.5660319328308105469 -2.5215768814086914063 -2.45877838134765625 -2.4056234359741210938 -2.3919939994812011719 -2.4249587059020996094 -2.4818460941314697266 -2.4302420616149902344 -2.3619568347930908203 -2.33905029296875 -2.2291982173919677734 -2.2238647937774658203 -2.1393916606903076172 -2.0647137165069580078 -2.0370647907257080078 -1.8618175983428955078 -1.7086658477783203125 -1.5750006437301635742 -1.4541285037994384766 -1.3164812326431274414 -1.2802791595458984375 -1.2692457437515258789 -1.2251193523406982422 -1.1322635412216186523 -1.2241816520690917969 -1.1945871114730834961 -1.1254308223724365234 -0.9289989471435546875 -0.91442573070526123047 -0.88483309745788574219 -0.80425035953521728516 -0.86318862438201904297 -0.74695676565170288086 -0.67160242795944213867 -0.56304389238357543945 -0.48658511042594909668 -0.4230779111385345459 -0.36634063720703125 -0.21925529837608337402 -0.15120188891887664795 -0.11676003038883209229 -0.065714284777641296387 0.030871175229549407959 -0.25540637969970703125 -0.1054910123348236084 -0.0087575865909457206726 0.069005124270915985107 0.10021004825830459595 0.14369915425777435303 0.20749884843826293945 0.22226834297180175781 0.29677018523216247559 0.33093804121017456055 0.36162814497947692871 0.39799809455871582031 0.40527328848838806152 0.46279025077819824219 0.49427580833435058594 0.52026206254959106445 0.55540585517883300781 -9999 -9999 -9999 -9999 -9999 -9999 -9999 -9999 -9999 -9999 -9999 -9999
-9999 -9999 -9999 -9999 -9999 -9999 -9999 -9999 -9999 -9999 -9999 1.0318405628204345703 2.5 2.5 2.5 2.5 2.5 2.5 2.5 2.5 2.5 2.5 2.5 2.5 2.5 2.5 2.5 2.5 2.5 2.5 2.5 2.5 2.5 2.5 2.5 2.5 2.5 2.5 2.5 2.5 2.5 2.5 2.5 2.5 2.5 2.5 2.5 2.5 2.5 2.5 2.5 2.5 2.5 2.5 2.5 2.5 2.5 2.5 2.5 2.5 2.5 2.5 2.5 2.5 2.5 2.5 2.5 2.5 2.5 2.5 2.5 2.5 2.5 2.5 2.5 2.5 2.5 2.5 2.5 2.5 2.5 2.5 2.5 2.5 2.3811175823211669922 2.2195043563842773438 2.0454246997833251953 1.8281369209289550781 1.641997218132019043 1.463038325309753418 1.1835758686065673828 0.87411206960678100586 0.61606365442276000977 -0.0046489364467561244965 -0.26630854606628417969 -0.56123203039169311523 -1.0727052688598632813 -1.3347803354263305664 -1.6599657535552978516 -1.8484280109405517578 -2.0425155162811279297 -2.2344529628753662109 -2.4334714412689208984 -2.5405404567718505859 -2.5405404567718505859 -2.5405404567718505859 -2.5405404567718505859 -2.5405404567718505859 -2.5405404567718505859 -2.5405404567718505859 -2.5405404567718505859 -2.5405404567718505859 -2.5405404567718505859 -2.5405404567718505859 -2.5405404567718505859 -2.6457169055938720703 -2.7351992130279541016 -2.8005781173706054688 -2.8497216701507568359 -2.9000844955444335938 -2.8954446315765380859 -2.914882659912109375 -2.9476516246795654297 -2.9596104621887207031 -2.9792881011962890625 -2.9710397720336914063 -2.9590544700622558594 -2.9486098289489746094 -2.9437603950500488281 -2.9337837696075439453 -2.913776397705078125 -2.8761250972747802734 -2.8282866477966308594 -2.7839536666870117188 -2.7553503513336181641 -2.7432613372802734375 -2.7523708343505859375 -2.692241668701171875 -2.6602573394775390625 -2.5565612316131591797 -2.4611365795135498047 -2.4462015628814697266 -2.3298974037170410156 -2.3216640949249267578 -2.1588916778564453125 -2.0247557163238525391 -1.8855255842208862305 -1.761199951171875 -1.6299316883087158203 -1.499142765998840332 -1.3987771272659301758 -1.3682844638824462891 -1.2812441587448120117 -1.3083385229110717773 -1.3183845281600952148 -1.2989760637283325195 -1.0608843564987182617 -1.0076302289962768555 -0.99500179290771484375 -0.90929967164993286133 -0.94818824529647827148 -0.86070472002029418945 -0.78388696908950805664 -0.68553847074508666992 -0.58063089847564697266 -0.50866812467575073242 -0.46707800030708312988 -0.33601734042167663574 -0.23670652508735656738 -0.19646210968494415283 -0.14125300943851470947 -0.029700253158807754517 -0.23514977097511291504 -0.32415193319320678711 -0.077895000576972961426 -0.0067324643023312091827 0.036959685385227203369 0.067791871726512908936 0.13066305220127105713 0.16783180832862854004 0.23173131048679351807 0.27661153674125671387 0.30444166064262390137 0.34090504050254821777 0.3589324951171875 0.41540506482124328613 0.45374283194541931152 0.48200511932373046875 0.51752382516860961914 0.52693116664886474609 0.52416342496871948242 0.51711952686309814453 -9999 -9999 -9999 -9999 -9999 -9999 -9999 -9999 -9999 -9999
-9999 -9999 -9999 -9999 -9999 -9999 -9999 -9999 -9999 -9999 -9999 2.5 2.5 2.5 2.5 2.5 2.5 2.5 2.5 2.5 2.5 2.5 2.5 2.5 2.5 2.5 2.5 2.5 2.5 2.5 2.5 2.5 2.5 2.5 2.5 2.5 2.5 2.5 2.5 2.5 2.5 2.5 2.5 2.5 2.5 2.5 2.5 2.5 2.5 2.5 2.5 2.5 2.5 2.5 2.5 2.5 2.5 2.5 2.5 2.5 2.5 2.5 2.5 2.5 2.5 2.5 2.5 2.5 2.5 2.5 2.5 2.5 2.5 2.5 2.5 2.5 2.5 2.5 2.5 2.5 2.5 2.5 2.5 2.5 2.5 2.5 2.4110729694366455078 2.2432374954223632813 2.0680642127990722656 1.8465410470962524414 1.5913947820663452148 1.3494153022766113281 0.82563424110412597656 0.57063323259353637695 0.20875443518161773682 -0.22715213894844055176 -0.50785976648330688477 -0.94702094793319702148 -1.3979982137680053711 -1.7304435968399047852 -1.9221762418746948242 -2.1213603019714355469 -2.3209557533264160156 -2.5217347145080566406 -2.5405404567718505859 -2.5405404567718505859 -2.5405404567718505859 -2.5405404567718505859 -2.5405404567718505859 -2.5405404567718505859 -2.5405404567718505859 -2.5405404567718505859 -2.5405404567718505859 -2.5405404567718505859 -2.6247198581695556641 -2.8088703155517578125 -3.0751836299896240234 -3.1135966777801513672 -3.1388814449310302734 -3.1772387027740478516 -3.1651515960693359375 -3.1812641620635986328 -3.1910905838012695313 -3.2110273838043212891 -3.2399382591247558594 -3.2334225177764892578 -3.2235372066497802734 -3.2227275371551513672 -3.2154486179351806641 -3.2123692035675048828 -3.2018985748291015625 -3.1919527053833007813 -3.1819570064544677734 -3.1622838973999023438 -3.1187067031860351563 -3.0615639686584472656 -3.0228955745697021484 -2.9542410373687744141 -2.8895745277404785156 -2.7904071807861328125 -2.7456467151641845703 -2.6348984241485595703 -2.5581231117248535156 -2.4894165992736816406 -2.3420395851135253906 -2.1967308521270751953 -2.0682713985443115234 -1.9433821439743041992 -1.8036688566207885742 -1.6996575593948364258 -1.5970946550369262695 -1.4596635103225708008 -1.392495274543762207 -1.4421818256378173828 -1.4237444400787353516 -1.2266705036163330078 -1.1216583251953125 -1.1043535470962524414 -1.0367865562438964844 -1.0426605939865112305 -0.99274098873138427734 -0.89617156982421875 -0.80803304910659790039 -0.6695740818977355957 -0.59634542465209960938 -0.55522114038467407227 -0.45277938246726989746 -0.32398435473442077637 -0.27581524848937988281 -0.21679173409938812256 -0.12597915530204772949 -0.1590274423360824585 -0.45016428828239440918 -0.14703242480754852295 -0.082470051944255828857 -0.030309401452541351318 -0.017887739464640617371 0.061288002878427505493 0.11339528113603591919 0.16669243574142456055 0.22273565828800201416 0.23631407320499420166 0.2861455380916595459 0.31259173154830932617 0.36801987886428833008 0.41320979595184326172 0.4346548914909362793 0.47926691174507141113 0.49280947446823120117 0.49030423164367675781 0.48326033353805541992 0.47621640563011169434 0.50017881393432617188 0.51429265737533569336 -9999 -9999 -9999 -9999 -9999 -9999 -9999 -9999
-9999 -9999 -9999 -9999 -9999 -9999 -9999 -9999 -9999 -9999 1.3229928016662597656 2.5 2.5 2.5 2.5 2.5 2.5 2.5 2.5 2.5 2.5 2.5 2.5 2.5 2.5 2.5 2.5 2.5 2.5 2.5 2.5 2.5 2.5 2.5 2.5 2.5 2.5 2.5 2.5 2.5 2.5 2.5 2.5 2.5 2.5 2.5 2.5 2.5 2.5 2.5 2.5 2.5 2.5 2.5 2.5 2.5 2.5 2.5 2.5 2.5 2.5 2.5 2.5 2.5 2.5 2.5 2.5 2.5 2.5 2.5 2.5 2.5 2.5 2.5 2.5 2.5 2.5 2.5 2.5 2.5 2.5 2.5 2.5 2.5 2.5 2.5 2.5 2.5 2.5 2.30867767333984375 2.0827670097351074219 1.6559174060821533203 1.3593361377716064453 0.97874093055725097656 0.6208146214485168457 0.22755986452102661133 -0.22230255603790283203 -0.67375928163528442383 -1.1253018379211425781 -1.5794870853424072266 -1.8078596591949462891 -2.0077455043792724609 -2.2063238620758056641 -2.4028372764587402344 -2.5405404567718505859 -2.5405404567718505859 -2.5405404567718505859 -2.5405404567718505859 -2.5405404567718505859 -2.5405404567718505859 -2.5405404567718505859 -2.5405404567718505859 -2.5405404567718505859 -2.6205334663391113281 -2.8868467807769775391 -3.15316009521484375 -3.4009540081024169922 -3.4150061607360839844 -3.4121203422546386719 -3.4199225902557373047 -3.3878037929534912109 -3.3786900043487548828 -3.3648285865783691406 -3.3841924667358398438 -3.4122116565704345703 -3.3890337944030761719 -3.3682138919830322266 -3.3635880947113037109 -3.3448605537414550781 -3.3319153785705566406 -3.3075103759765625 -3.2968854904174804688 -3.2696075439453125 -3.2598209381103515625 -3.2360942363739013672 -3.2217314243316650391 -3.2007303237915039063 -3.1845030784606933594 -3.1181499958038330078 -3.0242528915405273438 -2.9408152103424072266 -2.8303866386413574219 -2.7696378231048583984 -2.6353030204772949219 -2.5079362392425537109 -2.3765637874603271484 -2.2524518966674804688 -2.1148648262023925781 -1.9999444484710693359 -1.8906693458557128906 -1.7659906148910522461 -1.6198807954788208008 -1.5912852287292480469 -1.5475417375564575195 -1.4002158641815185547 -1.2356864213943481445 -1.2137053012847900391 -1.1646413803100585938 -1.1477098464965820313 -1.1247771978378295898 -1.008456110954284668 -0.91476541757583618164 -0.76584738492965698242 -0.69607621431350708008 -0.64336431026458740234 -0.56954145431518554688 -0.41313371062278747559 -0.35516837239265441895 -0.30328109860420227051 -0.23315377533435821533 -0.14066118001937866211 -0.56175214052200317383 -0.21616983413696289063 -0.16682775318622589111 -0.10227396339178085327 -0.086685799062252044678 -0.0080870380625128746033 0.058958742767572402954 0.099719166755676269531 0.17081181704998016357 0.18198758363723754883 0.23138605058193206787 0.26625093817710876465 0.3192196190357208252 0.37207081913948059082 0.3879967033863067627 0.44100993871688842773 0.45868781208992004395 0.4564450383186340332 0.44940111041069030762 0.44235721230506896973 0.46711087226867675781 0.49219328165054321289 0.51609206199645996094 0.53999084234237670898 -9999 -9999 -9999 -9999 -9999 -9999 -9999
-9999 -9999 -9999 -9999 -9999 -9999 -9999 -9999 -9999 -9999 2.5 2.5 2.5 2.5 2.5 2.5 2.5 2.5 2.5 2.5 2.5 2.5 2.5 2.5 2.5 2.5 2.5 2.5 2.5 2.5 2.5 2.5 2.5 2.5 2.5 2.5 2.5 2.5 2.5 2.5 2.5 2.5 2.5 2.5 2.5 2.5 2.5 2.5 2.5 2.5 2.5 2.5 2.5 2.5 2.5 2.5 2.5 2.5 2.5 2.5 2.5 2.5 2.5 2.5 2.5 2.5 2.5 2.5 2.5 2.5 2.5 2.5 2.5 2.5 2.5 2.5 2.5 2.5 2.5 2.5 2.5 2.5 2.5 2.5 2.5 2.5 2.5 2.5 2.5 2.5 2.4862005710601806641 2.1329944133758544922 1.7487274408340454102 1.3793464899063110352 0.95329850912094116211 0.50202232599258422852 0.0504797324538230896 -0.44795668125152587891 -0.88579672574996948242 -1.3236366510391235352 -1.6925429105758666992 -1.8909131288528442383 -2.0886731147766113281 -2.273777008056640625 -2.4475619792938232422 -2.5405404567718505859 -2.5405404567718505859 -2.5405404567718505859 -2.5405404567718505859 -2.5405404567718505859 -2.5405404567718505859 -2.5405404567718505859 -2.6985099315643310547 -2.9648234844207763672 -3.2311367988586425781 -3.4974501132965087891 -3.722759246826171875 -3.7155299186706542969 -3.6851022243499755859 -3.6616616249084472656 -3.6099121570587158203 -3.5742101669311523438 -3.5378038883209228516 -3.5583581924438476563 -3.5828206539154052734 -3.5422315597534179688 -3.5134401321411132813 -3.5021021366119384766 -3.4736878871917724609 -3.4477725028991699219 -3.412761688232421875 -3.4018177986145019531 -3.358234405517578125 -3.3469007015228271484 -3.3073635101318359375 -3.2935254573822021484 -3.2581202983856201172 -3.2424671649932861328 -3.2192866802215576172 -3.1893951892852783203 -3.1348056793212890625 -3.0421144962310791016 -2.9417684078216552734 -2.8221595287322998047 -2.6868526935577392578 -2.5610055923461914063 -2.4282321929931640625 -2.3002312183380126953 -2.1858844757080078125 -2.0723176002502441406 -1.9112685918807983398 -1.87567138671875 -1.7766567468643188477 -1.6009685993194580078 -1.3497145175933837891 -1.3143175840377807617 -1.2771402597427368164 -1.2527593374252319336 -1.2568135261535644531 -1.1162717342376708984 -1.0229603052139282227 -0.88834196329116821289 -0.79580700397491455078 -0.73150753974914550781 -0.67152905464172363281 -0.50228303670883178711 -0.44004559516906738281 -0.39199134707450866699 -0.34032839536666870117 -0.20123261213302612305 -0.67333996295928955078 -0.37290841341018676758 -0.25905066728591918945 -0.17551808059215545654 -0.14993615448474884033 -0.077462077140808105469 -0.0021341815590858459473 0.025921676307916641235 0.11017978191375732422 0.127661094069480896 0.176626548171043396 0.21911023557186126709 0.23731349408626556396 0.32468563318252563477 0.34746369719505310059 0.40275299549102783203 0.42456614971160888672 0.42356213927268981934 0.41554191708564758301 0.40849801898002624512 0.43404290080070495605 0.45894742012023925781 0.48284623026847839355 0.50674498081207275391 0.52078932523727416992 0.50549727678298950195 0.51796752214431762695 -9999 -9999 -9999 -9999 -9999
-9999 -9999 -9999 -9999 -9999 -9999 -9999 -9999 -9999 1.6141449213027954102 2.5 2.5 2.5 2.5 2.5 2.5 2.5 2.5 2.5 2.5 2.5 2.5 2.5 2.5 2.5 2.5 2.5 2.5 2.5 2.5 2.5 2.5 2.5 2.5 2.5 2.5 2.5 2.5 2.5 2.5 2.5 2.5 2.5 2.5 2.5 2.5 2.5 2.5 2.5 2.5 2.5 2.5 2.5 2.5 2.5 2.5 2.5 2.5 2.5 2.5 2.5 2.5 2.5 2.5 2.5 2.5 2.5 2.5 2.5 2.5 2.5 2.5 2.5 2.5 2.5 2.5 2.5 2.5 2.5 2.5 2.5 2.5 2.5 2.5 2.5 2.5 2.5 2.5 2.5 2.5 2.5 2.5 2.1147661209106445313 1.6778038740158081055 1.1875469684600830078 0.68357372283935546875 0.24573370814323425293 -0.19210632145404815674 -0.62994635105133056641 -1.0677864551544189453 -1.5056264400482177734 -1.7746928930282592773 -1.964028477668762207 -2.13730621337890625 -2.3037626743316650391 -2.4255075454711914063 -2.5403132438659667969 -2.5405404567718505859 -2.5405404567718505859 -2.5405404567718505859 -2.5405404567718505859 -2.8462145328521728516 -3.1867787837982177734 -3.3091132640838623047 -3.5754268169403076172 -3.8417401313781738281 -4.0445642471313476563 -4.0160531997680664063 -3.9580838680267333984 -3.9034006595611572266 -3.8320205211639404297 -3.7697303295135498047 -3.7107789516448974609 -3.7325239181518554688 -3.7534296512603759766 -3.6954293251037597656 -3.6586666107177734375 -3.6406164169311523438 -3.6025154590606689453 -3.5636296272277832031 -3.51801300048828125 -3.5067505836486816406 -3.4468607902526855469 -3.4339804649353027344 -3.3786325454711914063 -3.3653194904327392578 -3.3155102729797363281 -3.3004312515258789063 -3.2772507667541503906 -3.2308547496795654297 -3.2086141109466552734 -3.182384490966796875 -3.1154232025146484375 -2.9971415996551513672 -2.8690278530120849609 -2.7409789562225341797 -2.6075751781463623047 -2.4911627769470214844 -2.3786449432373046875 -2.2181565761566162109 -2.1600575447082519531 -2.0474901199340820313 -1.9015953540802001953 -1.6010961532592773438 -1.4680970907211303711 -1.3864920139312744141 -1.3578087091445922852 -1.3888498544692993164 -1.2289961576461791992 -1.1352448463439941406 -1.0108366012573242188 -0.89553785324096679688 -0.81846183538436889648 -0.77284801006317138672 -0.61810982227325439453 -0.52555024623870849609 -0.48070156574249267578 -0.41712373495101928711 -0.26180404424667358398 -0.66288894414901733398 -0.59156930446624755859 -0.35127356648445129395 -0.2512556612491607666 -0.21318651735782623291 -0.1524073183536529541 -0.080286465585231781006 -0.043237883597612380981 0.045140895992517471313 0.073334611952304840088 0.12058799713850021362 0.15955698490142822266 0.17889672517776489258 0.27730044722557067871 0.30693069100379943848 0.36449608206748962402 0.39044448733329772949 0.39452624320983886719 0.3816827237606048584 0.37463879585266113281 0.40097495913505554199 0.42570158839225769043 0.44960036873817443848 0.47349917888641357422 0.50673896074295043945 0.49116247892379760742 0.47824934124946594238 0.48276188969612121582 0.46620070934295654297 0.49640220403671264648 -9999 -9999 -9999
-9999 -9999 -9999 -9999 -9999 -9999 -9999 -9999 -0.18463642895221710205 2.4865591526031494141 2.5 2.5 2.5 2.5 2.5 2.5 2.5 2.5 2.5 2.5 2.5 2.5 2.5 2.5 2.5 2.5 2.5 2.5 2.5 2.5 2.5 2.5 2.5 2.5 2.5 2.5 2.5 2.5 2.5 2.5 2.5 2.5 2.5 2.5 2.5 2.5 2.5 2.5 2.5 2.5 2.5 2.5 2.5 2.5 2.5 2.5 2.5 2.5 2.5 2.5 2.5 2.5 2.5 2.5 2.5 2.5 2.5 2.5 2.5 2.5 2.5 2.5 2.5 2.5 2.5 2.5 2.5 2.5 2.5 2.5 2.5 2.5 2.5 2.5 2.5 2.5 2.5 2.5 2.5 2.5 2.5 2.5 2.3213834762573242188 1.8151042461395263672 1.3772641420364379883 0.93942409753799438477 0.50158405303955078125 0.045968417078256607056 -0.43241736292839050293 -0.86968380212783813477 -1.2768092155456542969 -1.6582673788070678711 -1.8384393453598022461 -2.0222103595733642578 -2.1595346927642822266 -2.2864918708801269531 -2.4452452659606933594 -2.5054333209991455078 -2.5405404567718505859 -2.6085712909698486328 -2.9491360187530517578 -3.2897002696990966797 -3.6302647590637207031 -3.8333306312561035156 -3.9233205318450927734 -4.1860299110412597656 -4.3663692474365234375 -4.3165769577026367188 -4.2310657501220703125 -4.1451396942138671875 -4.0541291236877441406 -3.9652504920959472656 -3.8837542533874511719 -3.9066898822784423828 -3.9240386486053466797 -3.8486270904541015625 -3.8038928508758544922 -3.7791304588317871094 -3.7313427925109863281 -3.6794867515563964844 -3.623264312744140625 -3.5919632911682128906 -3.5341646671295166016 -3.5081284046173095703 -3.4502408504486083984 -3.4310812950134277344 -3.3731806278228759766 -3.3583955764770507813 -3.2976636886596679688 -3.2729995250701904297 -3.2346665859222412109 -3.2106041908264160156 -3.1948413848876953125 -3.1760358810424804688 -3.0495328903198242188 -2.9187712669372558594 -2.7964410781860351563 -2.6761364936828613281 -2.5250446796417236328 -2.4439682960510253906 -2.3183236122131347656 -2.2022221088409423828 -1.9088182449340820313 -1.7716526985168457031 -1.6307311058044433594 -1.5004129409790039063 -1.4911694526672363281 -1.3610323667526245117 -1.2475293874740600586 -1.1333310604095458984 -0.99526864290237426758 -0.90556734800338745117 -0.8609911799430847168 -0.73487186431884765625 -0.61105489730834960938 -0.56494569778442382813 -0.4926624596118927002 -0.3557332456111907959 -0.58676660060882568359 -0.810230255126953125 -0.42252466082572937012 -0.32699325680732727051 -0.2799555361270904541 -0.23808693885803222656 -0.15843874216079711914 -0.097674421966075897217 -0.01989798620343208313 0.019291656091809272766 0.051088675856590270996 0.10114394873380661011 0.1325559467077255249 0.22991526126861572266 0.26639768481254577637 0.32623910903930664063 0.35591089725494384766 0.36195772886276245117 0.34782350063323974609 0.3407796025276184082 0.36790701746940612793 0.39272981882095336914 0.41635453701019287109 0.44025331735610961914 0.4811293184757232666 0.47711211442947387695 0.45477786660194396973 0.45390009880065917969 0.46381402015686035156 0.47372794151306152344 0.48781123757362365723 0.4813753664493560791 -9999 -9999
-9999 -9999 -9999 -9999 -9999 -9999 -9999 -9999 1.9052970409393310547 2.2967069149017333984 2.3828775882720947266 2.4689273834228515625 2.5 2.5 2.5 2.5 2.5 2.5 2.5 2.5 2.5 2.5 2.5 2.5 2.5 2.5 2.5 2.5 2.5 2.5 2.5 2.5 2.5 2.5 2.5 2.5 2.5 2.5 2.5 2.5 2.5 2.5 2.5 2.5 2.5 2.5 2.5 2.5 2.5 2.5 2.5 2.5 2.5 2.5 2.5 2.5 2.5 2.5 2.5 2.5 2.5 2.5 2.5 2.5 2.5 2.5 2.5 2.5 2.5 2.5 2.5 2.5 2.5 2.5 2.5 2.5 2.5 2.5 2.5 2.5 2.5 2.5 2.5 2.5 2.5 2.5 2.5 2.5 2.5 2.5 2.5 2.5 2.3705072402954101563 1.8921215534210205078 1.4137357473373413086 0.99671995639801025391 0.58959460258483886719 0.17729964852333068848 -0.23588685691356658936 -0.64907336235046386719 -1.0622599124908447266 -1.4754463434219360352 -1.7394872903823852539 -1.9162231683731079102 -2.0669558048248291016 -2.2899010181427001953 -2.3500890731811523438 -2.4120850563049316406 -2.7229821681976318359 -3.1080160140991210938 -3.3926217555999755859 -3.7331862449645996094 -4.0737504959106445313 -4.3519597053527832031 -4.4384508132934570313 -4.5402512550354003906 -4.6881742477416992188 -4.6171007156372070313 -4.4933190345764160156 -4.3744907379150390625 -4.2407975196838378906 -4.1339569091796875 -4.009246826171875 -4.01789093017578125 -4.0185565948486328125 -3.9305875301361083984 -3.8811326026916503906 -3.8513398170471191406 -3.7963240146636962891 -3.7306227684020996094 -3.6864864826202392578 -3.6469876766204833984 -3.6135134696960449219 -3.5715501308441162109 -3.5223333835601806641 -3.4811143875122070313 -3.4325692653656005859 -3.4062068462371826172 -3.3359277248382568359 -3.3148336410522460938 -3.2540493011474609375 -3.2392365932464599609 -3.2216200828552246094 -3.1896822452545166016 -3.1799790859222412109 -3.1013195514678955078 -2.9745037555694580078 -2.8319325447082519531 -2.7233214378356933594 -2.5891568660736083984 -2.4717099666595458984 -2.2165403366088867188 -2.0752081871032714844 -1.9320510625839233398 -1.8047518730163574219 -1.7272436618804931641 -1.5115746259689331055 -1.3598140478134155273 -1.2558257579803466797 -1.0911455154418945313 -1.0052982568740844727 -0.94913434982299804688 -0.85163390636444091797 -0.69655948877334594727 -0.64429879188537597656 -0.57851243019104003906 -0.46290788054466247559 -0.51064431667327880859 -0.97968566417694091797 -0.49166205525398254395 -0.41043239831924438477 -0.35192009806632995605 -0.32376655936241149902 -0.22924827039241790771 -0.15211094915866851807 -0.086327247321605682373 -0.032632190734148025513 -0.018410647287964820862 0.046384453773498535156 0.086215160787105560303 0.1825300753116607666 0.22586469352245330811 0.28348377346992492676 0.32122856378555297852 0.32783603668212890625 0.31396430730819702148 0.30692040920257568359 0.33483904600143432617 0.36036559939384460449 0.38310870528221130371 0.40700748562812805176 0.44391360878944396973 0.46306174993515014648 0.43130639195442199707 0.42752993106842041016 0.43495225906372070313 0.444866180419921875 0.47191730141639709473 0.48290237784385681152 0.49839317798614501953 0.48479622602462768555 0.49414002895355224609
-9999 -9999 -9999 -9999 -9999 -9999 -9999 0.10651568323373794556 2.0207662582397460938 2.1071310043334960938 2.1933238506317138672 2.2793416976928710938 2.3654038906097412109 2.4513452053070068359 2.5 2.5 2.5 2.5 2.5 2.5 2.5 2.5 2.5 2.5 2.5 2.5 2.5 2.5 2.5 2.5 2.5 2.5 2.5 2.5 2.5 2.5 2.5 2.5 2.5 2.5 2.5 2.5 2.5 2.5 2.5 2.5 2.5 2.5 2.5 2.5 2.5 2.5 2.5 2.5 2.5 2.5 2.5 2.5 2.5 2.5 2.5 2.5 2.5 2.5 2.5 2.5 2.5 2.5 2.5 2.5 2.5 2.5 2.5 2.5 2.5 2.5 2.5 2.5 2.5 2.5 2.5 2.5 2.5 2.5 2.5 2.5 2.5 2.5 2.5 2.5 2.5 2.5 2.3004496097564697266 1.877417445182800293 1.4543852806091308594 1.0313532352447509766 0.61841797828674316406 0.22895127534866333008 -0.16051541268825531006 -0.5499820709228515625 -0.93944877386093139648 -1.3289154767990112305 -1.6729116439819335938 -1.9556994438171386719 -2.1345570087432861328 -2.2067999839782714844 -2.4128801822662353516 -2.8123958110809326172 -3.2119116783142089844 -3.6714868545532226563 -3.9954524040222167969 -4.1982564926147460938 -4.5172367095947265625 -4.8267703056335449219 -4.9825596809387207031 -4.922428131103515625 -4.6572823524475097656 -4.4507594108581542969 -4.2242670059204101563 -4.1351804733276367188 -4.1711673736572265625 -4.1596860885620117188 -4.0373282432556152344 -4.0071759223937988281 -3.9906270503997802734 -3.9054327011108398438 -3.8615097999572753906 -3.8339943885803222656 -3.7795209884643554688 -3.7031044960021972656 -3.6864864826202392578 -3.6287186145782470703 -3.6135134696960449219 -3.5601673126220703125 -3.5405404567718505859 -3.4916174411773681641 -3.4675676822662353516 -3.4223968982696533203 -3.3783524036407470703 -3.3303658962249755859 -3.2825341224670410156 -3.2672040462493896484 -3.2162847518920898438 -3.2041106224060058594 -3.1943666934967041016 -3.1756756305694580078 -3.138820648193359375 -3.0026745796203613281 -2.8632218837738037109 -2.7406363487243652344 -2.5242624282836914063 -2.3787636756896972656 -2.2333712577819824219 -2.1090908050537109375 -2.0126035213470458984 -1.7899326086044311523 -1.5868853330612182617 -1.386752009391784668 -1.2136400938034057617 -1.105028986930847168 -1.0372774600982666016 -0.96839594841003417969 -0.78560751676559448242 -0.72888934612274169922 -0.66722267866134643555 -0.57008248567581176758 -0.43452194333076477051 -1.0912735462188720703 -0.64032584428787231445 -0.50265532732009887695 -0.42388466000556945801 -0.40008237957954406738 -0.29862332344055175781 -0.2117672264575958252 -0.16012473404407501221 -0.084556043148040771484 -0.075615830719470977783 -0.0083750421181321144104 0.039874374866485595703 0.10251288115978240967 0.185331687331199646 0.22875118255615234375 0.2852439582347869873 0.29371437430381774902 0.28010511398315429688 0.27306118607521057129 0.30177110433578491211 0.32800135016441345215 0.34986287355422973633 0.37376165390014648438 0.4128068387508392334 0.44901138544082641602 0.4479643702507019043 0.4040584862232208252 0.40609046816825866699 0.41600438952445983887 0.45602339506149291992 0.46266394853591918945 0.48189729452133178711 0.48198476433753967285 0.49613502621650695801 0.50129336118698120117
-9999 -9999 -9999 -9999 -9999 -9999 -9999 1.7435898780822753906 1.8309139013290405273 1.9174120426177978516 2.0037887096405029297 2.0900440216064453125 2.1761784553527832031 2.2621922492980957031 2.3480854034423828125 2.4338121414184570313 2.5 2.5 2.5 2.5 2.5 2.5 2.5 2.5 2.5 2.5 2.5 2.5 2.5 2.5 2.5 2.5 2.5 2.5 2.5 2.5 2.5 2.5 2.5 2.5 2.5 2.5 2.5 2.5 2.5 2.5 2.5 2.5 2.5 2.5 2.5 2.5 2.5 2.5 2.5 2.5 2.5 2.5 2.5 2.5 2.5 2.5 2.5 2.5 2.5 2.5 2.5 2.5 2.5 2.5 2.5 2.5 2.5 2.5 2.5 2.5 2.5 2.5 2.5 2.5 2.5 2.5 2.5 2.5 2.5 2.5 2.5 2.5 2.5 2.5 2.5 2.5 2.1921191215515136719 1.8148094415664672852 1.413909912109375 1.0138183832168579102 0.61644083261489868164 0.21906325221061706543 -0.17831431329250335693 -0.5756918787956237793 -0.97306942939758300781 -1.3704470396041870117 -1.8178873062133789063 -2.0015149116516113281 -2.1051137447357177734 -2.5022938251495361328 -2.9018096923828125 -3.3013253211975097656 -3.7008409500122070313 -4.1475186347961425781 -4.5416431427001953125 -4.8731522560119628906 -5.1344928741455078125 -5.3012866973876953125 -5.0449352264404296875 -4.7063298225402832031 -4.4264621734619140625 -4.2046136856079101563 -3.9600355625152587891 -3.8317430019378662109 -3.862728118896484375 -3.8987150192260742188 -3.9347021579742431641 -3.9680731296539306641 -3.9620389938354492188 -3.8888955116271972656 -3.8393678665161132813 -3.8186869621276855469 -3.7566826343536376953 -3.6864864826202392578 -3.6812460422515869141 -3.6135134696960449219 -3.6126606464385986328 -3.5419092178344726563 -3.5405404567718505859 -3.4733850955963134766 -3.4675676822662353516 -3.4040865898132324219 -3.3934230804443359375 -3.3305616378784179688 -3.3114995956420898438 -3.2648916244506835938 -3.2277102470397949219 -3.2190334796905517578 -3.1756756305694580078 -3.1756756305694580078 -3.1756756305694580078 -3.1425750255584716797 -3.0095627307891845703 -2.8319845199584960938 -2.6823194026947021484 -2.535541534423828125 -2.4134294986724853516 -2.2953360080718994141 -2.0682904720306396484 -1.8919301033020019531 -1.7041475772857666016 -1.4384535551071166992 -1.2053804397583007813 -1.125420689582824707 -1.0785259008407592773 -0.90020227432250976563 -0.81439393758773803711 -0.75593286752700805664 -0.67725712060928344727 -0.49390783905982971191 -1.0906281471252441406 -0.85898673534393310547 -0.59487825632095336914 -0.49584925174713134766 -0.46333274245262145996 -0.37260651588439941406 -0.28991949558258056641 -0.23392222821712493896 -0.14144952595233917236 -0.12994231283664703369 -0.06326564401388168335 -0.019330872222781181335 0.020606758072972297668 0.13919584453105926514 0.17401862144470214844 0.2469870150089263916 0.2595927119255065918 0.24624589085578918457 0.23920199275016784668 0.26189580559730529785 0.29538717865943908691 0.31661704182624816895 0.34051582217216491699 0.38170006871223449707 0.43496099114418029785 0.42119812965393066406 0.38058701157569885254 0.37722867727279663086 0.38714259862899780273 0.4043146669864654541 0.44677004218101501465 0.46097847819328308105 0.46398180723190307617 0.47599926590919494629 0.49709984660148620605 0.49268075823783874512
-9999 -9999 -9999 -9999 -9999 -9999 0.39766779541969299316 1.5549732446670532227 1.6415396928787231445 1.727805018424987793 1.8142031431198120117 1.9005916118621826172 1.9868588447570800781 2.0730051994323730469 2.159030914306640625 2.2449362277984619141 2.3307213783264160156 2.4163866043090820313 2.5 2.5 2.5 2.5 2.5 2.5 2.5 2.5 2.5 2.5 2.5 2.5 2.5 2.5 2.5 2.5 2.5 2.5 2.5 2.5 2.5 2.5 2.5 2.5 2.5 2.5 2.5 2.5 2.5 2.5 2.5 2.5 2.5 2.5 2.5 2.5 2.5 2.5 2.5 2.5 2.5 2.5 2.5 2.5 2.5 2.5 2.5 2.5 2.5 2.5 2.5 2.5 2.5 2.5 2.5 2.5 2.5 2.5 2.5 2.5 2.5 2.5 2.5 2.5 2.5 2.5 2.5 2.5 2.5 2.5 2.5 2.5 2.5 2.4145359992980957031 2.0325944423675537109 1.6586209535598754883 1.2816023826599121094 0.91214722394943237305 0.5293013453483581543 0.1464554518461227417 -0.25427898764610290527 -0.65976887941360473633 -1.0652587413787841797 -1.469300389289855957 -1.8666778802871704102 -2.1921918392181396484 -2.5917077064514160156 -2.9912233352661132813 -3.3907389640808105469 -3.7902545928955078125 -4.1897702217102050781 -4.5892863273620605469 -5.1258931159973144531 -5.3854131698608398438 -5.6048183441162109375 -5.2475347518920898438 -4.8166270256042480469 -4.5097417831420898438 -4.2101511955261230469 -3.9480817317962646484 -3.7250487804412841797 -3.5626912117004394531 -3.5542883872985839844 -3.5902755260467529297 -3.626262664794921875 -3.601337432861328125 -3.6193521022796630859 -3.5882041454315185547 -3.5830919742584228516 -3.6143462657928466797 -3.5975217819213867188 -3.6093885898590087891 -3.6384642124176025391 -3.6135134696960449219 -3.5944011211395263672 -3.5405404567718505859 -3.5258908271789550781 -3.4675676822662353516 -3.4572441577911376953 -3.3945946693420410156 -3.3562633991241455078 -3.3216216564178466797 -3.3035352230072021484 -3.2486486434936523438 -3.2436203956604003906 -3.1876087188720703125 -3.1756756305694580078 -3.1756756305694580078 -3.1756756305694580078 -3.1756756305694580078 -3.1397066116333007813 -2.9860920906066894531 -2.8381645679473876953 -2.7177684307098388672 -2.5780684947967529297 -2.3730955123901367188 -2.1969749927520751953 -2.0192420482635498047 -1.7527290582656860352 -1.5499937534332275391 -1.3409647941589355469 -1.1667611598968505859 -1.0169643163681030273 -0.89989858865737915039 -0.84464311599731445313 -0.76853317022323608398 -0.58548730611801147461 -1.0145057439804077148 -1.0776475667953491211 -0.68710118532180786133 -0.57151645421981811523 -0.52960169315338134766 -0.45828613638877868652 -0.36807179450988769531 -0.30771970748901367188 -0.20648840069770812988 -0.18415233492851257324 -0.13276496529579162598 -0.078884132206439971924 -0.047479838132858276367 0.091810658574104309082 0.11958557367324829102 0.20873008668422698975 0.22547103464603424072 0.216764792799949646 0.20534278452396392822 0.22131642699241638184 0.26231923699378967285 0.28337121009826660156 0.30726999044418334961 0.35059326887130737305 0.39688122272491455078 0.40533417463302612305 0.38031926751136779785 0.35333907604217529297 0.3582808375358581543 0.36819475889205932617 0.43087613582611083984 0.440059661865234375 0.44597890973091125488 0.44757339358329772949 0.47331157326698303223 0.4850368797779083252 0.4798876345157623291
-9999 -9999 -9999 -9999 -9999 -9999 1.2774159908294677734 1.3651208877563476563 1.4519464969635009766 1.5386500358581542969 1.6252318620681762695 1.7116923332214355469 1.7980314493179321289 1.8840124607086181641 1.9699764251708984375 2.0560140609741210938 2.1419312953948974609 2.2277283668518066406 2.3134057521820068359 2.3989634513854980469 2.484401702880859375 2.5 2.5 2.5 2.5 2.5 2.5 2.5 2.5 2.5 2.5 2.5 2.5 2.5 2.5 2.5 2.5 2.5 2.5 2.5 2.5 2.5 2.5 2.5 2.5 2.5 2.5 2.5 2.5 2.5 2.5 2.5 2.5 2.5 2.5 2.5 2.5 2.5 2.5 2.5 2.5 2.5 2.5 2.5 2.5 2.5 2.5 2.5 2.5 2.5 2.5 2.5 2.5 2.5 2.5 2.5 2.5 2.5 2.5 2.5 2.5 2.5 2.5 2.5 2.5 2.5 2.5 2.5 2.5 2.5 2.5 2.2395877838134765625 1.8719265460968017578 1.4867843389511108398 1.1144782304763793945 0.74644780158996582031 0.37441298365592956543 0.009484985843300819397 -0.37336090207099914551 -0.75620681047439575195 -1.1390527486801147461 -1.5218986272811889648 -1.9312034845352172852 -2.5442938804626464844 -3.1007027626037597656 -3.4801526069641113281 -3.8796684741973876953 -4.2791838645935058594 -4.6786999702453613281 -5.0782155990600585938 -5.6442961692810058594 -5.9365634918212890625 -5.3509221076965332031 -5.054729461669921875 -4.6813139915466308594 -4.2929887771606445313 -3.9663264751434326172 -3.7141854763031005859 -3.4900617599487304688 -3.2936391830444335938 -3.2458488941192626953 -3.2818357944488525391 -3.3178229331970214844 -3.2389624118804931641 -3.2508921623229980469 -3.2243175506591796875 -3.2304062843322753906 -3.2612524032592773438 -3.2444279193878173828 -3.2872002124786376953 -3.3061087131500244141 -3.3437223434448242188 -3.3677971363067626953 -3.3906629085540771484 -3.4187939167022705078 -3.4635796546936035156 -3.4391036033630371094 -3.3818325996398925781 -3.3216216564178466797 -3.3216216564178466797 -3.2664721012115478516 -3.2486486434936523438 -3.2135791778564453125 -3.1756756305694580078 -3.1756756305694580078 -3.1756756305694580078 -3.1756756305694580078 -3.1756756305694580078 -3.1756756305694580078 -3.1407876014709472656 -3.0019409656524658203 -2.8608012199401855469 -2.6802582740783691406 -2.5020198822021484375 -2.3335175514221191406 -2.0972309112548828125 -1.8946070671081542969 -1.6992832422256469727 -1.5090215206146240234 -1.2462432384490966797 -0.98540323972702026367 -0.93335336446762084961 -0.85374373197555541992 -0.6926619410514831543 -0.93838346004486083984 -1.2963086366653442383 -0.76715427637100219727 -0.65403705835342407227 -0.60156625509262084961 -0.54396575689315795898 -0.44622406363487243652 -0.36318063735961914063 -0.27237367630004882813 -0.23607619106769561768 -0.20226429402828216553 -0.13843739032745361328 -0.093820616602897644043 0.044425468891859054565 0.079052567481994628906 0.1704731285572052002 0.19109830260276794434 0.18772889673709869385 0.17148357629776000977 0.18073701858520507813 0.22925128042697906494 0.25012534856796264648 0.27402415871620178223 0.31948649883270263672 0.3585821688175201416 0.39128378033638000488 0.40554624795913696289 0.32986763119697570801 0.32941904664039611816 0.33933296799659729004 0.39561569690704345703 0.42162278294563293457 0.43905457854270935059 0.42957046627998352051 0.45317581295967102051 0.47739297151565551758 0.46566540002822875977 0.46984267234802246094
-9999 -9999 -9999 -9999 -9999 0.68881994485855102539 1.0889792442321777344 1.175693511962890625 1.262286067008972168 1.3490643501281738281 1.4357793331146240234 1.5223726034164428711 1.6088445186614990234 1.695195317268371582 1.7814252376556396484 1.8675345182418823242 1.9535233974456787109 2.0393469333648681641 2.1248793601989746094 2.2105686664581298828 2.2961385250091552734 2.3815889358520507813 2.4669203758239746094 2.5 2.5 2.5 2.5 2.5 2.5 2.5 2.5 2.5 2.5 2.5 2.5 2.5 2.5 2.5 2.5 2.5 2.5 2.5 2.5 2.5 2.5 2.5 2.5 2.5 2.5 2.5 2.5 2.5 2.5 2.5 2.5 2.5 2.5 2.5 2.5 2.5 2.5 2.5 2.5 2.5 2.5 2.5 2.5 2.5 2.5 2.5 2.5 2.5 2.5 2.5 2.5 2.5 2.5 2.5 2.5 2.5 2.5 2.5 2.5 2.5 2.5 2.5 2.5 2.5 2.5 2.5 2.4234209060668945313 2.0428388118743896484 1.6676287651062011719 1.2880235910415649414 0.94008630514144897461 0.55903249979019165039 0.19636194407939910889 -0.1657253950834274292 -0.53277647495269775391 -0.89317727088928222656 -1.2760231494903564453 -1.6588691473007202148 -2.0714282989501953125 -2.6932110786437988281 -3.2770917415618896484 -3.8403725624084472656 -4.4287958145141601563 -4.7903738021850585938 -5.167629241943359375 -5.5671448707580566406 -6.1005778312683105469 -5.8231863975524902344 -5.3662695884704589844 -4.7806286811828613281 -4.5046405792236328125 -4.1150937080383300781 -3.7693507671356201172 -3.4805877208709716797 -3.2388811111450195313 -3.0282082557678222656 -2.9374094009399414063 -2.97339630126953125 -2.9830827713012695313 -2.8884387016296386719 -2.8824322223663330078 -2.8604309558868408203 -2.8777208328247070313 -2.9081587791442871094 -2.9068949222564697266 -2.9676012992858886719 -2.9810929298400878906 -3.0485856533050537109 -3.0691852569580078125 -3.1276886463165283203 -3.1454904079437255859 -3.2287449836730957031 -3.2590818405151367188 -3.3022491931915283203 -3.3216216564178466797 -3.292270660400390625 -3.2486486434936523438 -3.2395570278167724609 -3.1756756305694580078 -3.1756756305694580078 -3.1756756305694580078 -3.1756756305694580078 -3.1756756305694580078 -3.1756756305694580078 -3.1756756305694580078 -3.1756756305694580078 -3.1409125328063964844 -2.9874210357666015625 -2.8207941055297851563 -2.6477930545806884766 -2.4439444541931152344 -2.2392752170562744141 -2.0576016902923583984 -1.8705180883407592773 -1.6377183198928833008 -1.3505761623382568359 -1.1283817291259765625 -0.94245398044586181641 -0.79983657598495483398 -0.86226111650466918945 -1.5092071294784545898 -0.90774321556091308594 -0.74625998735427856445 -0.67353081703186035156 -0.62964534759521484375 -0.51978456974029541016 -0.42140024900436401367 -0.34617117047309875488 -0.28800004720687866211 -0.27176362276077270508 -0.19337664544582366943 -0.14016139507293701172 -0.032287724316120147705 0.038519561290740966797 0.13221618533134460449 0.1564159691333770752 0.15869301557540893555 0.13762436807155609131 0.14015761017799377441 0.19618332386016845703 0.21687953174114227295 0.240778312087059021 0.28837972879409790039 0.32028314471244812012 0.37723341584205627441 0.37878003716468811035 0.30639615654945373535 0.30117440223693847656 0.31047117710113525391 0.34050282835960388184 0.40572887659072875977 0.41813576221466064453 0.41156753897666931152 0.4288031458854675293 0.45048812031745910645 0.46532997488975524902 0.4556204378604888916 0.45949339866638183594
-9999 -9999 -9999 -9999 -1.109961390495300293 0.81124204397201538086 0.89932793378829956055 0.98648083209991455078 1.0735112428665161133 1.1604195833206176758 1.2471985816955566406 1.3335589170455932617 1.4197981357574462891 1.5061408281326293945 1.5925029516220092773 1.6787445545196533203 1.7648652791976928711 1.8508658409118652344 1.9367463588714599609 2.0225071907043457031 2.1081483364105224609 2.1936702728271484375 2.278919219970703125 2.3642628192901611328 2.4494876861572265625 2.5 2.5 2.5 2.5 2.5 2.5 2.5 2.5 2.5 2.5 2.5 2.5 2.5 2.5 2.5 2.5 2.5 2.5 2.5 2.5 2.5 2.5 2.5 2.5 2.5 2.5 2.5 2.5 2.5 2.5 2.5 2.5 2.5 2.5 2.5 2.5 2.5 2.5 2.5 2.5 2.5 2.5 2.5 2.5 2.5 2.5 2.5 2.5 2.5 2.5 2.5 2.5 2.5 2.5 2.5 2.5 2.5 2.5 2.5 2.5 2.5 2.5 2.5 2.5 2.5 2.2119743824005126953 1.8315623998641967773 1.4548952579498291016 1.0900760889053344727 0.70992904901504516602 0.35788133740425109863 0.0061398870311677455902 -0.36871924996376037598 -0.72175431251525878906 -1.0778986215591430664 -1.4399659633636474609 -1.7990860939025878906 -2.3280041217803955078 -2.9257574081420898438 -3.4982883930206298828 -4.0917448997497558594 -4.6868715286254882813 -5.1969733238220214844 -5.7495417594909667969 -6.1184668540954589844 -5.9142923355102539063 -5.5790925025939941406 -5.2316203117370605469 -4.7896132469177246094 -4.21033477783203125 -3.9508814811706542969 -3.5488727092742919922 -3.2263231277465820313 -3.0019090175628662109 -2.76435089111328125 -2.6320633888244628906 -2.6649568080902099609 -2.6204876899719238281 -2.5379147529602050781 -2.5139722824096679688 -2.4965443611145019531 -2.5250351428985595703 -2.5550649166107177734 -2.5895369052886962891 -2.6542828083038330078 -2.6979987621307373047 -2.7786214351654052734 -2.8119018077850341797 -2.8559947013854980469 -2.9140462875366210938 -2.9910426139831542969 -3.0149884223937988281 -3.227001190185546875 -3.2666184902191162109 -3.2528042793273925781 -3.2486486434936523438 -3.2009642124176025391 -3.1756756305694580078 -3.1756756305694580078 -3.1756756305694580078 -3.1756756305694580078 -3.1756756305694580078 -3.1756756305694580078 -3.1756756305694580078 -3.1756756305694580078 -3.1756756305694580078 -3.1399090290069580078 -2.9637367725372314453 -2.7906577587127685547 -2.5980935096740722656 -2.4159200191497802734 -2.2322504520416259766 -2.0291934013366699219 -1.7509601116180419922 -1.5321997404098510742 -1.2990560531616210938 -1.0065551996231079102 -0.78613877296447753906 -1.5183672904968261719 -1.1264040470123291016 -0.83848291635513305664 -0.74549537897109985352 -0.71347892284393310547 -0.59280568361282348633 -0.49955251812934875488 -0.41996863484382629395 -0.3399238884449005127 -0.33321925997734069824 -0.24813613295555114746 -0.19821871817111968994 -0.11419384926557540894 -0.0020134432706981897354 0.077580057084560394287 0.12173362821340560913 0.12874095141887664795 0.10376516729593276978 0.099578216671943664551 0.16311536729335784912 0.18363368511199951172 0.20753248035907745361 0.25587707757949829102 0.28765323758125305176 0.35093215107917785645 0.35201382637023925781 0.33817687630653381348 0.27914822101593017578 0.28160941600799560547 0.29152333736419677734 0.38239848613739013672 0.39721694588661193848 0.4017441868782043457 0.39515909552574157715 0.43035236001014709473 0.45768606662750244141 0.44139820337295532227 0.4482561945915222168 0.42756474018096923828
-9999 -9999 -9999 -9999 0.53350490331649780273 0.62280523777008056641 0.70984733104705810547 0.79676717519760131836 0.8839257359504699707 0.97096711397171020508 1.0578863620758056641 1.144683837890625 1.2313597202301025391 1.3179142475128173828 1.4043476581573486328 1.4905412197113037109 1.5764298439025878906 1.6623395681381225586 1.7483516931533813477 1.8342437744140625 1.920016169548034668 2.0056691169738769531 2.0912029743194580078 2.1766176223754882813 2.2619135379791259766 2.3470911979675292969 2.4321503639221191406 2.5 2.5 2.5 2.5 2.5 2.5 2.5 2.5 2.5 2.5 2.5 2.5 2.5 2.5 2.5 2.5 2.5 2.5 2.5 2.5 2.5 2.5 2.5 2.5 2.5 2.5 2.5 2.5 2.5 2.5 2.5 2.5 2.5 2.5 2.5 2.5 2.5 2.5 2.5 2.5 2.5 2.5 2.5 2.5 2.5 2.5 2.5 2.5 2.5 2.5 2.5 2.5 2.5 2.5 2.5 2.5 2.5 2.5 2.5 2.5 2.5 2.5 2.3603487014770507813 1.9772584438323974609 1.6155722141265869141 1.2295147180557250977 0.86695182323455810547 0.48751589655876159668 0.13797013461589813232 -0.23311783373355865479 -0.57406371831893920898 -0.92780655622482299805 -1.2921235561370849609 -1.6398706436157226563 -2.033740997314453125 -2.5915029048919677734 -3.149265289306640625 -3.7895290851593017578 -4.4048218727111816406 -4.9814124107360839844 -5.532238006591796875 -6.0966515541076660156 -6.2902445793151855469 -5.8509302139282226563 -5.3524680137634277344 -4.9421734809875488281 -4.6158447265625 -4.1980466842651367188 -3.6602077484130859375 -3.396831512451171875 -3.0174045562744140625 -2.7458829879760742188 -2.5293641090393066406 -2.3635849952697753906 -2.3565173149108886719 -2.2651166915893554688 -2.1873910427093505859 -2.1507155895233154297 -2.1430149078369140625 -2.1736595630645751953 -2.2019712924957275391 -2.2686839103698730469 -2.3292100429534912109 -2.4081680774688720703 -2.4941387176513671875 -2.5561876296997070313 -2.591064453125 -2.6792116165161132813 -2.7336351871490478516 -2.8618221282958984375 -3.1493430137634277344 -3.1473441123962402344 -3.21015167236328125 -3.2055308818817138672 -3.1756756305694580078 -3.1756756305694580078 -3.1756756305694580078 -3.1756756305694580078 -3.1756756305694580078 -3.1756756305694580078 -3.1756756305694580078 -3.1756756305694580078 -3.1756756305694580078 -3.1756756305694580078 -3.1756756305694580078 -3.1373713016510009766 -2.9569122791290283203 -2.7745592594146728516 -2.5939829349517822266 -2.4165740013122558594 -2.1487095355987548828 -1.9360177516937255859 -1.7158142328262329102 -1.4622253179550170898 -1.0903990268707275391 -1.5289098024368286133 -1.345064997673034668 -0.93070584535598754883 -0.81745994091033935547 -0.77924782037734985352 -0.67848533391952514648 -0.57770478725433349609 -0.4937661290168762207 -0.39307880401611328125 -0.38754573464393615723 -0.3166186213493347168 -0.25777196884155273438 -0.19609996676445007324 -0.046293951570987701416 0.022847481071949005127 0.08705129474401473999 0.094619281589984893799 0.069905966520309448242 0.062862053513526916504 0.13004742562770843506 0.15107479691505432129 0.17428663372993469238 0.22203959524631500244 0.25654646754264831543 0.31263309717178344727 0.33355620503425598145 0.36312815546989440918 0.25567674636840820313 0.25274762511253356934 0.26266154646873474121 0.33180388808250427246 0.38058158755302429199 0.39621189236640930176 0.37715616822242736816 0.4102166295051574707 0.43941327929496765137 0.44562309980392456055 0.43135321140289306641 0.44290089607238769531 0.35675355792045593262
-9999 -9999 -9999 -0.81880927085876464844 0.34506812691688537598 0.43353497982025146484 0.52101522684097290039 0.60837262868881225586 0.69552499055862426758 0.78233289718627929688 0.86901903152465820313 0.95558375120162963867 1.0423052310943603516 1.1289919614791870117 1.2155575752258300781 1.3020021915435791016 1.3883260488510131836 1.4745293855667114258 1.5606125593185424805 1.6465756893157958984 1.7321885824203491211 1.8176679611206054688 1.9033325910568237305 1.9888780117034912109 2.0743045806884765625 2.1596124172210693359 2.2448017597198486328 2.3298730850219726563 2.4148263931274414063 2.4996619224548339844 2.5 2.5 2.5 2.5 2.5 2.5 2.5 2.5 2.5 2.5 2.5 2.5 2.5 2.5 2.5 2.5 2.5 2.5 2.5 2.5 2.5 2.5 2.5 2.5 2.5 2.5 2.5 2.5 2.5 2.5 2.5 2.5 2.5 2.5 2.5 2.5 2.5 2.5 2.5 2.5 2.5 2.5 2.5 2.5 2.5 2.5 2.5 2.5 2.5 2.5 2.5 2.5 2.5 2.5 2.5 2.5 2.5 2.5 2.4730362892150878906 2.1008369922637939453 1.7304425239562988281 1.3553507328033447266 0.99625372886657714844 0.63311249017715454102 0.25987988710403442383 -0.10157372802495956421 -0.45946663618087768555 -0.81972956657409667969 -1.1632601022720336914 -1.5080101490020751953 -1.8617529869079589844 -2.3395326137542724609 -2.8347730636596679688 -3.4138348102569580078 -3.9970729351043701172 -4.5582532882690429688 -5.189136505126953125 -5.8540987968444824219 -6.4645357131958007813 -6.1180520057678222656 -5.6726865768432617188 -5.2273206710815429688 -4.7906436920166015625 -4.3052544593811035156 -3.982082366943359375 -3.6064801216125488281 -3.110118865966796875 -2.8427817821502685547 -2.4863195419311523438 -2.2875568866729736328 -2.0985174179077148438 -2.0447163581848144531 -1.9145929813385009766 -1.8368673324584960938 -1.7875052690505981445 -1.7895729541778564453 -1.8223948478698730469 -1.8786778450012207031 -1.9524718523025512695 -2.02219390869140625 -2.1216859817504882813 -2.2038753032684326172 -2.2931952476501464844 -2.3632519245147705078 -2.4539029598236083984 -2.4932637214660644531 -3.0255408287048339844 -3.0418839454650878906 -3.1505687236785888672 -3.1289234161376953125 -3.1176609992980957031 -3.1584625244140625 -3.1756756305694580078 -3.1756756305694580078 -3.1756756305694580078 -3.1756756305694580078 -3.1756756305694580078 -3.1756756305694580078 -3.1756756305694580078 -3.1756756305694580078 -3.1756756305694580078 -3.1756756305694580078 -3.1756756305694580078 -3.1362917423248291016 -2.9557154178619384766 -2.7784693241119384766 -2.546459197998046875 -2.3403379917144775391 -2.1325724124908447266 -1.9086889028549194336 -1.5534808635711669922 -1.8402564525604248047 -1.6874464750289916992 -1.0797169208526611328 -0.89764177799224853516 -0.85121238231658935547 -0.76416492462158203125 -0.655857086181640625 -0.56756359338760375977 -0.45842006802558898926 -0.43952018022537231445 -0.3861179351806640625 -0.31732523441314697266 -0.27385640144348144531 -0.093679137527942657471 -0.031885091215372085571 0.052368953824043273926 0.060497611761093139648 0.039003334939479827881 0.029002852737903594971 0.096979461610317230225 0.11871054768562316895 0.141040802001953125 0.18820208311080932617 0.22543968260288238525 0.27433407306671142578 0.31950584053993225098 0.33636194467544555664 0.23220530152320861816 0.22698797285556793213 0.23379977047443389893 0.27669101953506469727 0.36468768119812011719 0.37529304623603820801 0.35915324091911315918 0.37645980715751647949 0.40752890706062316895 0.43797919154167175293 0.41713097691535949707 0.44351825118064880371 0.40315383672714233398 0.3273709416389465332
-9999 -9999 -9999 0.067330986261367797852 0.15663133561611175537 0.24400117993354797363 0.33129638433456420898 0.4187870323657989502 0.50615483522415161133 0.59340012073516845703 0.68052309751510620117 0.7675240635871887207 0.8544031977653503418 0.94096761941909790039 1.0273004770278930664 1.1135127544403076172 1.199799656867980957 1.2861347198486328125 1.3723491430282592773 1.4584435224533081055 1.5444178581237792969 1.6302726268768310547 1.7160079479217529297 1.8016240596771240234 1.8870816230773925781 1.9721581935882568359 2.0574529170989990234 2.1426541805267333984 2.2277371883392333984 2.3127024173736572266 2.3975501060485839844 2.4822802543640136719 2.5 2.5 2.5 2.5 2.5 2.5 2.5 2.5 2.5 2.5 2.5 2.5 2.5 2.5 2.5 2.5 2.5 2.5 2.5 2.5 2.5 2.5 2.5 2.5 2.5 2.5 2.5 2.5 2.5 2.5 2.5 2.5 2.5 2.5 2.5 2.5 2.5 2.5 2.5 2.5 2.5 2.5 2.5 2.5 2.5 2.5 2.5 2.5 2.5 2.5 2.5 2.5 2.5 2.5 2.5 2.5 2.2033460140228271484 1.8338167667388916016 1.4675141572952270508 1.0950659513473510742 0.73344308137893676758 0.36901509761810302734 0.023426465690135955811 -0.34934723377227783203 -0.70063310861587524414 -1.0620268583297729492 -1.4064491987228393555 -1.7542593479156494141 -2.1430635452270507813 -2.6269321441650390625 -3.1026275157928466797 -3.6470592021942138672 -4.1558165550231933594 -4.7890138626098632813 -5.3766002655029296875 -5.9597535133361816406 -6.2452597618103027344 -5.8917016983032226563 -5.5004940032958984375 -5.0551285743713378906 -4.6097626686096191406 -4.1802549362182617188 -3.7303574085235595703 -3.3483202457427978516 -3.0078332424163818359 -2.5600299835205078125 -2.2887318134307861328 -2.0111782550811767578 -1.8334499597549438477 -1.6776176691055297852 -1.5205647945404052734 -1.4237482547760009766 -1.3659970760345458984 -1.3024703264236450195 -1.2989078760147094727 -1.3975737094879150391 -1.5087847709655761719 -1.6999089717864990234 -1.8517524003982543945 -1.9540382623672485352 -2.0366387367248535156 -2.1311376094818115234 -2.2081887722015380859 -2.6659092903137207031 -2.9364237785339355469 -3.0854449272155761719 -3.074436187744140625 -3.037448883056640625 -3.0767171382904052734 -3.1711592674255371094 -3.1512315273284912109 -3.1756756305694580078 -3.1756756305694580078 -3.1756756305694580078 -3.1756756305694580078 -3.1756756305694580078 -3.1756756305694580078 -3.1756756305694580078 -3.1756756305694580078 -3.1756756305694580078 -3.1756756305694580078 -3.1756756305694580078 -3.1403648853302001953 -2.9442083835601806641 -2.7454059123992919922 -2.5493304729461669922 -2.3278369903564453125 -2.0165629386901855469 -2.1516029834747314453 -2.0847177505493164063 -1.5170339345932006836 -1.2113692760467529297 -0.9612128138542175293 -0.84984457492828369141 -0.73400938510894775391 -0.63103330135345458984 -0.53221756219863891602 -0.49144405126571655273 -0.4556172788143157959 -0.37687849998474121094 -0.32019719481468200684 -0.16708832979202270508 -0.08661766350269317627 0.014707144349813461304 0.02628571726381778717 0.0099674435332417488098 -0.0048563526943325996399 0.060975920408964157104 0.086346313357353210449 0.10779497027397155762 0.15436458587646484375 0.19433291256427764893 0.23603503406047821045 0.30498307943344116211 0.3095957338809967041 0.2960345149040222168 0.20495736598968505859 0.20493799448013305664 0.22157813608646392822 0.32122719287872314453 0.35543432831764221191 0.35883057117462158203 0.3427447974681854248 0.38739317655563354492 0.43033531308174133301 0.41056832671165466309 0.40708398818969726563 0.42630839347839355469 0.32049545645713806152 0.30807816982269287109
